ncols         500
nrows         40
xllcorner     526651.492
yllcorner     3651735.34
cellsize      30
NODATA_value  -9999
721 725 723 713 691 696 714 721 717 721 724 728 734 742 752 763 770 773 773 772 769 770 770 769 768 770 776 776 779 782 792 794 794 796 799 805 807 808 810 813 820 826 830 833 838 840 841 842 839 843 848 853 857 860 863 864 866 873 881 887 895 906 917 937 952 960 960 972 977 979 980 980 979 974 967 956 940 929 914 903 905 911 916 916 912 900 886 883 880 876 871 872 869 864 865 870 875 881 889 890 897 903 903 898 884 889 901 917 934 957 972 986 998 1006 1014 1022 1027 1026 1017 1015 1013 1015 1003 998 997 1004 1017 1041 1047 1043 1032 1021 1015 1006 1000 996 982 978 967 955 954 939 927 919 924 912 909 911 927 947 968 986 1006 1027 1049 1049 1037 1028 1021 999 989 977 965 945 934 950 950 966 984 996 1001 1006 1006 982 974 963 955 955 937 938 937 937 926 942 960 976 990 972 969 955 938 922 925 938 945 943 930 912 899 899 907 929 948 969 989 994 1011 1026 1043 1063 1071 1092 1110 1120 1159 1168 1177 1190 1196 1192 1187 1181 1176 1164 1157 1147 1139 1132 1125 1117 1101 1087 1087 1090 1085 1074 1071 1088 1083 1083 1085 1081 1094 1089 1082 1081 1090 1089 1092 1093 1091 1099 1100 1102 1100 1097 1102 1100 1099 1100 1102 1106 1112 1115 1120 1125 1125 1135 1143 1148 1154 1163 1180 1190 1197 1209 1222 1233 1242 1240 1234 1241 1245 1241 1232 1224 1217 1211 1207 1204 1203 1204 1209 1214 1221 1230 1233 1232 1231 1231 1230 1231 1234 1242 1247 1255 1261 1270 1279 1280 1272 1279 1292 1303 1312 1319 1327 1336 1346 1356 1360 1370 1381 1391 1397 1407 1415 1423 1430 1436 1442 1448 1448 1453 1447 1448 1449 1448 1443 1448 1451 1453 1458 1457 1460 1461 1464 1466 1475 1480 1487 1492 1499 1505 1511 1517 1522 1530 1536 1539 1542 1548 1552 1557 1564 1570 1574 1577 1579 1581 1584 1592 1599 1605 1608 1617 1619 1622 1621 1623 1630 1633 1637 1640 1652 1656 1666 1671 1669 1671 1669 1665 1662 1657 1660 1660 1658 1653 1652 1652 1646 1640 1634 1634 1631 1626 1619 1611 1607 1598 1595 1593 1600 1609 1613 1619 1628 1638 1640 1640 1637 1638 1637 1635 1630 1623 1618 1611 1604 1597 1585 1580 1580 1579 1578 1578 1572 1565 1558 1554 1553 1543 1534 1526 1518 1510 1504 1501 1498 1497 1490 1481 1474 1466 1464 1464 1461 1456 1450 1446 1441 1439 1444 1450 1453 1454 1454 1449 1449 1452 1453 1452 1448 1442 1440 1435 1428 1428 1432 1436 1441 1449 1455 1459 1459 1454 1449 1443 1438 1430 1425 1425 1426 1427 1427 1427 1428 1427 1428 1428
707 718 722 711 690 688 708 715 716 720 724 729 735 742 750 762 770 775 775 774 771 774 774 773 773 773 780 783 783 784 788 796 798 800 802 808 811 813 815 816 825 828 832 836 842 843 844 844 843 847 850 853 856 860 863 864 868 875 879 886 892 900 911 926 942 957 967 977 979 979 978 976 970 969 965 953 940 926 911 901 902 904 908 910 904 894 880 876 876 872 865 866 866 864 863 868 872 877 882 885 891 895 892 883 880 891 905 919 938 959 974 988 999 1005 1013 1021 1025 1022 1011 1007 1005 1005 988 992 1000 1000 1014 1042 1055 1058 1045 1028 1009 999 989 984 968 962 954 942 940 924 915 909 910 900 900 913 931 949 969 989 1010 1033 1051 1045 1029 1016 1016 992 983 977 965 952 926 935 953 968 974 979 984 991 990 970 963 951 938 938 920 917 920 922 917 938 954 968 974 954 955 949 937 922 922 913 921 933 931 929 911 897 909 926 942 961 977 980 994 1012 1030 1049 1070 1089 1116 1141 1172 1189 1203 1207 1199 1191 1185 1177 1169 1164 1149 1149 1143 1137 1133 1123 1114 1099 1091 1103 1098 1086 1086 1100 1100 1098 1097 1095 1100 1097 1091 1089 1090 1096 1096 1099 1099 1110 1112 1112 1108 1105 1108 1107 1107 1107 1112 1106 1103 1104 1108 1115 1123 1132 1140 1148 1151 1158 1172 1185 1190 1201 1214 1226 1238 1234 1226 1233 1242 1238 1231 1222 1215 1210 1205 1203 1203 1206 1206 1211 1215 1221 1229 1231 1230 1228 1229 1231 1239 1245 1251 1256 1260 1268 1269 1267 1267 1282 1294 1302 1311 1316 1323 1331 1340 1352 1357 1368 1380 1389 1398 1396 1404 1412 1420 1426 1432 1437 1441 1444 1437 1439 1440 1438 1435 1438 1442 1450 1454 1452 1455 1458 1462 1467 1476 1481 1487 1494 1501 1506 1512 1518 1524 1531 1531 1537 1541 1547 1551 1556 1561 1568 1576 1580 1584 1587 1590 1598 1602 1610 1615 1625 1626 1628 1628 1629 1635 1639 1645 1650 1664 1668 1674 1675 1673 1675 1672 1668 1668 1665 1669 1669 1669 1666 1665 1657 1651 1646 1639 1640 1635 1629 1620 1615 1611 1604 1599 1596 1602 1612 1617 1622 1631 1642 1643 1643 1640 1641 1639 1637 1633 1633 1624 1616 1608 1601 1589 1584 1585 1586 1585 1581 1574 1568 1564 1562 1553 1544 1537 1529 1515 1512 1509 1508 1504 1499 1488 1479 1473 1463 1460 1458 1457 1454 1451 1448 1444 1440 1439 1443 1447 1449 1448 1442 1443 1451 1453 1452 1446 1441 1437 1432 1426 1428 1431 1434 1440 1444 1452 1461 1463 1457 1451 1444 1437 1428 1425 1425 1425 1426 1427 1427 1427 1428 1428 1430
689 704 714 705 688 684 701 710 716 719 725 730 738 743 752 764 772 779 779 777 776 779 778 777 777 778 787 790 790 790 794 800 802 803 804 812 814 817 820 822 831 833 836 840 843 844 844 845 846 849 851 851 852 855 866 866 867 872 884 891 897 905 914 930 946 960 970 978 979 977 973 969 959 959 955 946 936 921 907 899 898 894 895 898 898 895 879 873 871 868 861 860 861 861 864 870 873 877 880 885 881 882 877 874 881 893 908 921 940 960 974 985 996 1001 1009 1016 1017 1016 1007 1005 1000 996 990 990 997 1010 1026 1053 1062 1056 1036 1020 1001 989 979 972 951 948 943 933 923 911 906 899 898 900 902 916 932 951 972 972 992 1013 1037 1046 1039 1021 1006 981 970 962 951 938 923 937 957 965 974 963 968 978 977 958 949 939 922 921 903 902 905 907 917 933 933 945 951 931 934 938 939 924 918 908 909 921 923 926 910 897 909 921 933 948 966 980 998 1016 1030 1045 1084 1103 1124 1147 1182 1203 1214 1209 1209 1195 1190 1184 1175 1161 1155 1148 1144 1139 1138 1126 1114 1103 1102 1112 1103 1094 1097 1107 1107 1103 1101 1101 1101 1100 1097 1095 1097 1098 1098 1103 1107 1112 1118 1120 1117 1115 1117 1114 1115 1115 1112 1109 1108 1105 1108 1114 1118 1124 1135 1144 1148 1157 1168 1179 1183 1195 1207 1221 1231 1228 1222 1223 1235 1231 1231 1229 1219 1212 1206 1203 1201 1203 1207 1212 1216 1222 1228 1227 1225 1226 1229 1233 1241 1246 1248 1254 1258 1261 1260 1258 1270 1283 1294 1301 1307 1316 1320 1327 1327 1336 1343 1354 1366 1377 1386 1394 1401 1411 1419 1424 1429 1432 1434 1435 1427 1429 1430 1430 1435 1430 1436 1441 1447 1451 1455 1460 1465 1470 1476 1482 1489 1489 1496 1501 1508 1514 1519 1525 1532 1537 1543 1547 1554 1559 1564 1571 1579 1583 1587 1593 1597 1606 1608 1614 1622 1634 1633 1636 1636 1633 1644 1646 1654 1661 1661 1676 1680 1681 1680 1681 1679 1676 1671 1669 1676 1677 1677 1673 1671 1662 1656 1652 1646 1645 1638 1629 1621 1615 1619 1615 1606 1601 1607 1612 1619 1626 1634 1646 1646 1647 1645 1647 1643 1640 1637 1632 1618 1610 1602 1597 1589 1591 1590 1589 1587 1575 1571 1568 1565 1562 1549 1543 1537 1527 1522 1520 1517 1517 1511 1499 1486 1486 1477 1468 1462 1456 1452 1453 1447 1445 1442 1440 1439 1441 1443 1444 1441 1438 1441 1451 1452 1450 1444 1441 1434 1428 1426 1426 1429 1433 1436 1445 1454 1460 1460 1463 1457 1453 1445 1437 1430 1426 1425 1426 1426 1426 1427 1428 1430 1433
675 688 701 693 684 684 701 710 718 723 723 728 738 744 751 758 766 780 781 779 778 779 782 780 779 781 792 796 796 796 798 805 807 808 809 817 819 821 826 829 836 838 840 842 842 843 843 844 845 847 851 853 855 861 868 870 873 878 886 894 903 910 917 935 949 961 972 977 978 975 968 961 950 948 944 938 931 924 914 902 894 883 885 885 886 886 870 867 867 865 857 858 860 863 866 871 873 875 877 878 872 869 869 873 881 892 907 921 942 958 958 970 981 984 994 1004 1009 1009 996 996 988 983 982 996 1008 1022 1038 1061 1059 1044 1025 1011 989 975 965 953 938 934 930 920 912 898 897 886 886 886 888 902 915 932 959 978 995 1013 1033 1033 1031 1014 997 972 959 948 939 924 922 940 952 954 959 951 956 965 966 947 936 925 911 911 891 888 888 891 894 909 925 933 934 912 917 922 925 924 906 898 897 910 904 906 902 896 907 932 943 951 963 991 1011 1028 1049 1068 1086 1103 1118 1138 1160 1191 1204 1204 1202 1190 1188 1183 1174 1162 1158 1157 1152 1146 1143 1129 1119 1112 1112 1114 1106 1101 1103 1107 1108 1105 1104 1103 1103 1102 1102 1100 1100 1102 1102 1103 1107 1117 1123 1124 1122 1119 1123 1123 1123 1120 1112 1116 1115 1108 1107 1118 1123 1123 1128 1138 1148 1160 1165 1172 1181 1190 1200 1200 1212 1215 1220 1215 1215 1218 1224 1224 1216 1209 1203 1201 1201 1204 1208 1212 1216 1221 1225 1222 1221 1222 1229 1234 1240 1243 1244 1251 1254 1256 1254 1257 1257 1269 1281 1291 1297 1303 1312 1320 1325 1332 1342 1354 1365 1375 1385 1395 1404 1412 1418 1420 1424 1426 1427 1426 1417 1419 1420 1423 1427 1427 1437 1442 1446 1453 1453 1458 1462 1467 1473 1477 1483 1490 1498 1503 1510 1514 1520 1527 1534 1539 1545 1550 1556 1561 1567 1573 1581 1586 1593 1599 1604 1615 1618 1621 1629 1640 1639 1639 1645 1646 1654 1655 1656 1663 1671 1687 1689 1687 1684 1687 1683 1682 1675 1672 1682 1685 1685 1679 1676 1669 1662 1658 1653 1647 1637 1628 1621 1620 1629 1625 1625 1612 1616 1611 1614 1623 1631 1645 1649 1650 1648 1646 1642 1638 1634 1629 1615 1609 1600 1596 1593 1598 1595 1590 1583 1575 1568 1563 1561 1557 1545 1539 1533 1524 1534 1532 1529 1528 1526 1517 1498 1486 1477 1468 1461 1454 1449 1448 1444 1442 1441 1439 1438 1438 1440 1441 1439 1437 1439 1449 1448 1447 1442 1440 1433 1427 1426 1425 1425 1427 1432 1438 1447 1454 1455 1458 1455 1453 1445 1437 1431 1427 1426 1425 1426 1426 1427 1430 1432 1433
673 678 688 678 682 681 691 704 714 720 726 731 743 753 761 766 772 782 783 780 780 781 785 783 782 786 796 801 802 802 802 810 812 814 815 825 825 827 829 831 840 841 841 841 842 842 842 843 844 847 852 856 861 866 867 870 875 881 885 892 903 915 924 941 950 961 970 977 973 970 970 965 951 944 937 935 930 913 904 894 889 877 876 876 874 875 862 861 861 859 857 860 864 867 869 872 872 871 872 872 865 862 866 866 871 881 891 905 921 941 955 963 974 984 986 997 999 998 981 980 974 977 987 1006 1020 1034 1049 1056 1047 1029 1013 1001 974 960 951 943 943 924 920 916 909 892 884 884 876 876 893 906 918 939 967 984 999 1012 1024 1021 1021 1006 987 964 948 936 926 911 925 938 941 942 946 939 939 945 955 949 940 925 913 901 873 869 874 882 888 899 912 917 915 893 898 903 907 908 890 888 887 895 897 897 896 901 915 937 953 953 967 1001 1013 1025 1043 1063 1100 1119 1136 1156 1173 1189 1189 1187 1188 1181 1185 1184 1174 1165 1167 1164 1159 1152 1149 1140 1130 1123 1120 1114 1108 1106 1106 1108 1110 1108 1107 1106 1107 1105 1104 1103 1103 1105 1106 1107 1111 1121 1125 1127 1126 1124 1131 1129 1127 1121 1114 1126 1123 1113 1109 1116 1125 1131 1133 1137 1140 1147 1157 1164 1168 1177 1187 1196 1206 1208 1211 1206 1209 1218 1216 1218 1210 1206 1200 1200 1201 1205 1208 1210 1214 1218 1221 1218 1219 1222 1229 1234 1236 1236 1240 1245 1250 1249 1251 1253 1258 1266 1277 1288 1296 1303 1313 1320 1325 1331 1341 1350 1361 1374 1385 1395 1403 1411 1416 1420 1417 1419 1419 1417 1411 1411 1411 1413 1416 1422 1430 1438 1443 1450 1455 1461 1464 1470 1478 1482 1486 1492 1498 1508 1514 1518 1522 1531 1537 1542 1546 1552 1559 1564 1569 1575 1586 1591 1599 1605 1605 1617 1623 1627 1630 1635 1647 1647 1651 1655 1664 1667 1668 1675 1682 1697 1696 1692 1691 1694 1690 1689 1683 1679 1689 1693 1692 1685 1680 1674 1668 1663 1657 1655 1646 1634 1630 1626 1635 1637 1633 1623 1620 1617 1617 1628 1636 1650 1653 1652 1650 1647 1642 1636 1631 1623 1620 1614 1607 1602 1599 1603 1598 1592 1585 1575 1575 1566 1559 1555 1547 1545 1541 1537 1544 1541 1539 1537 1530 1517 1500 1488 1477 1468 1463 1455 1450 1447 1440 1439 1440 1438 1437 1437 1438 1439 1438 1436 1438 1443 1443 1440 1439 1441 1439 1432 1426 1425 1424 1426 1431 1438 1448 1452 1451 1454 1455 1451 1443 1436 1430 1428 1426 1425 1425 1425 1427 1433 1437 1437
699 690 682 689 689 693 700 708 717 723 730 736 743 760 769 775 779 786 786 784 783 784 789 790 791 791 802 806 808 808 807 815 817 819 821 832 834 835 837 838 843 843 842 840 841 839 839 841 843 846 851 855 860 864 863 866 873 881 876 887 901 915 915 934 943 951 958 965 962 964 963 959 949 941 929 922 919 900 892 885 882 870 867 866 864 864 857 856 854 854 856 863 866 869 871 874 874 871 868 867 862 860 858 863 869 880 891 905 921 941 953 960 969 977 975 982 983 982 959 965 971 983 993 1016 1030 1045 1056 1042 1031 1031 1013 1000 974 959 949 940 932 911 906 904 898 880 873 869 870 878 899 912 925 944 974 989 1004 1014 1019 1010 1009 995 976 964 939 925 925 912 908 926 927 927 928 918 925 933 946 937 932 919 906 889 863 866 870 875 888 884 893 898 893 880 883 887 890 891 890 895 895 895 912 910 906 904 912 943 951 964 977 1001 1031 1040 1060 1077 1115 1136 1156 1172 1183 1177 1175 1174 1176 1169 1177 1182 1177 1170 1176 1172 1165 1159 1159 1159 1148 1139 1132 1127 1114 1108 1109 1111 1109 1108 1109 1108 1108 1107 1106 1105 1105 1108 1109 1110 1115 1124 1128 1129 1130 1131 1136 1133 1128 1122 1125 1134 1134 1131 1121 1124 1117 1120 1135 1141 1152 1148 1152 1161 1165 1175 1186 1194 1202 1201 1201 1197 1207 1212 1209 1210 1206 1203 1198 1199 1201 1204 1207 1206 1209 1215 1215 1215 1217 1219 1223 1229 1231 1232 1238 1244 1247 1244 1246 1251 1258 1268 1278 1286 1297 1306 1317 1321 1327 1333 1342 1350 1360 1372 1384 1395 1401 1407 1412 1412 1409 1411 1413 1412 1407 1407 1407 1410 1414 1426 1433 1440 1445 1453 1459 1465 1471 1476 1484 1488 1492 1496 1500 1511 1516 1521 1526 1535 1539 1544 1547 1553 1555 1561 1567 1573 1584 1592 1598 1602 1609 1622 1629 1635 1638 1643 1652 1654 1657 1661 1673 1677 1679 1683 1693 1704 1703 1698 1698 1701 1699 1697 1684 1683 1696 1698 1698 1697 1689 1680 1673 1667 1662 1654 1645 1637 1634 1632 1643 1644 1640 1630 1626 1623 1620 1635 1644 1657 1658 1655 1652 1647 1644 1637 1631 1623 1625 1618 1611 1611 1610 1613 1607 1600 1593 1585 1572 1566 1559 1552 1551 1551 1551 1549 1544 1549 1545 1540 1531 1515 1502 1490 1479 1471 1463 1455 1450 1445 1440 1438 1438 1437 1437 1435 1435 1435 1435 1436 1435 1436 1438 1438 1438 1440 1438 1431 1426 1424 1424 1426 1430 1436 1444 1446 1446 1451 1447 1446 1441 1433 1430 1426 1425 1425 1425 1425 1425 1428 1436 1441
713 710 698 713 710 705 708 713 721 727 734 740 748 763 776 782 785 790 790 789 788 789 794 794 795 797 806 808 811 815 815 823 824 827 830 832 841 842 843 843 844 842 839 838 838 834 836 839 842 844 848 852 856 860 855 855 858 863 867 867 884 900 917 933 942 947 951 957 953 955 956 955 949 939 923 908 903 886 881 876 873 870 859 859 858 858 853 852 852 852 856 862 866 870 873 878 876 871 866 863 855 856 853 859 869 879 889 905 918 939 951 955 960 966 962 966 965 963 953 966 982 994 994 1016 1026 1040 1052 1036 1023 1013 999 987 958 947 938 927 920 900 894 891 887 868 862 862 867 882 901 915 931 952 975 992 1007 1014 1013 1006 1001 994 985 968 940 928 913 899 910 917 912 912 914 901 910 919 934 927 923 913 899 884 864 876 877 871 875 874 878 881 880 895 895 896 891 885 890 896 905 910 929 932 927 923 930 957 966 979 991 1011 1044 1062 1080 1098 1135 1152 1167 1176 1179 1164 1163 1163 1165 1160 1171 1181 1181 1185 1192 1188 1181 1174 1167 1164 1156 1147 1139 1128 1114 1112 1116 1114 1110 1110 1111 1110 1110 1109 1108 1107 1107 1110 1112 1115 1119 1124 1133 1132 1133 1133 1141 1141 1137 1129 1124 1138 1143 1140 1131 1133 1128 1122 1129 1144 1153 1154 1153 1159 1165 1171 1182 1190 1196 1191 1193 1196 1204 1208 1204 1203 1202 1200 1197 1197 1199 1201 1203 1205 1207 1209 1213 1215 1217 1218 1221 1227 1229 1230 1234 1238 1242 1241 1244 1252 1260 1272 1282 1291 1301 1309 1316 1321 1327 1334 1342 1353 1353 1362 1372 1385 1393 1399 1404 1406 1404 1406 1407 1407 1403 1403 1404 1411 1418 1430 1436 1443 1449 1457 1462 1469 1476 1480 1488 1494 1500 1503 1507 1516 1519 1519 1524 1532 1537 1541 1546 1550 1556 1562 1569 1576 1587 1597 1605 1609 1613 1630 1636 1643 1647 1647 1656 1661 1664 1668 1681 1689 1691 1696 1702 1711 1711 1706 1706 1710 1708 1708 1703 1693 1697 1700 1700 1697 1689 1677 1671 1664 1658 1658 1654 1651 1643 1640 1656 1653 1647 1636 1631 1629 1628 1638 1649 1662 1662 1658 1654 1649 1652 1646 1638 1633 1635 1629 1623 1621 1617 1617 1610 1601 1593 1583 1577 1569 1562 1556 1562 1563 1562 1558 1553 1554 1548 1540 1530 1515 1502 1489 1479 1471 1464 1464 1456 1451 1447 1441 1438 1436 1435 1433 1432 1432 1432 1433 1432 1434 1435 1436 1437 1439 1438 1431 1426 1424 1423 1425 1428 1433 1440 1442 1438 1441 1437 1440 1440 1439 1428 1424 1424 1424 1424 1425 1426 1430 1437 1444
703 722 719 726 720 714 713 717 726 731 739 746 753 771 771 780 788 794 794 794 792 792 796 798 800 802 813 816 817 820 822 830 831 835 838 840 845 845 845 845 841 837 835 834 833 829 833 836 836 837 841 843 847 850 842 843 846 854 856 863 883 900 917 929 937 940 943 948 944 947 951 954 947 936 923 904 892 878 869 866 864 864 856 852 852 852 848 850 851 854 858 866 871 875 878 881 877 871 865 858 850 851 851 858 869 878 889 901 917 937 944 947 950 957 947 949 949 946 947 961 976 994 1007 1027 1036 1045 1044 1036 1008 995 984 972 945 935 927 918 909 891 884 877 875 856 856 862 871 885 900 916 916 934 954 976 992 1006 1009 997 990 980 973 957 932 914 898 894 900 897 894 894 895 881 894 908 924 927 912 904 888 874 870 888 894 894 883 888 883 878 877 906 916 917 908 896 896 897 906 917 932 941 944 944 950 974 987 1001 1011 1025 1067 1084 1100 1118 1147 1156 1160 1164 1164 1151 1150 1151 1151 1143 1154 1167 1181 1191 1196 1196 1190 1182 1174 1167 1159 1150 1140 1125 1119 1120 1122 1116 1111 1112 1112 1111 1113 1111 1109 1108 1108 1112 1112 1116 1119 1123 1135 1137 1137 1138 1147 1146 1141 1133 1130 1142 1148 1147 1140 1144 1139 1134 1129 1141 1152 1161 1159 1158 1163 1171 1176 1183 1188 1182 1189 1189 1195 1201 1199 1198 1196 1196 1196 1198 1200 1201 1203 1206 1207 1210 1212 1215 1218 1219 1222 1227 1231 1230 1231 1236 1239 1244 1244 1252 1262 1273 1282 1291 1291 1299 1304 1311 1318 1328 1337 1344 1353 1362 1373 1381 1390 1395 1398 1401 1401 1402 1402 1403 1398 1399 1404 1414 1422 1430 1438 1446 1452 1457 1465 1472 1478 1483 1485 1491 1498 1504 1510 1518 1522 1524 1527 1536 1539 1544 1547 1551 1557 1563 1572 1579 1587 1601 1611 1619 1624 1640 1646 1651 1654 1654 1659 1666 1671 1674 1690 1690 1699 1702 1706 1715 1716 1715 1712 1710 1713 1712 1707 1697 1703 1704 1702 1695 1685 1681 1673 1668 1663 1668 1665 1659 1650 1652 1666 1663 1655 1643 1631 1635 1635 1631 1640 1657 1666 1667 1662 1657 1656 1649 1644 1640 1638 1634 1632 1628 1623 1621 1614 1604 1594 1583 1583 1573 1564 1559 1572 1575 1573 1565 1558 1557 1550 1541 1541 1524 1510 1498 1486 1477 1472 1466 1460 1454 1446 1440 1436 1435 1434 1431 1429 1428 1429 1431 1430 1432 1433 1435 1437 1439 1438 1430 1426 1423 1422 1424 1425 1425 1431 1439 1440 1435 1428 1432 1434 1434 1427 1424 1424 1424 1424 1425 1427 1431 1437 1444
678 714 731 726 724 719 717 717 726 731 737 745 752 770 781 791 794 796 795 795 795 794 797 801 804 808 813 820 821 824 828 835 838 842 844 845 845 845 844 844 840 836 830 829 830 823 826 830 834 837 836 838 839 840 831 833 836 842 849 859 879 900 914 923 929 931 936 940 937 941 947 952 941 932 932 920 904 889 877 863 859 856 851 848 847 847 848 850 853 858 862 872 878 882 883 884 877 870 863 855 844 843 848 858 868 877 890 890 904 915 930 935 938 942 934 932 931 935 958 973 990 1006 1017 1037 1042 1039 1031 1021 996 983 968 955 934 923 914 909 901 882 877 869 869 850 846 854 862 871 886 904 917 935 958 977 988 999 1001 985 979 969 963 951 922 901 884 889 886 876 873 874 875 864 883 903 916 915 903 896 893 884 862 876 897 907 900 906 901 893 894 927 938 933 917 905 903 899 905 918 932 943 950 958 965 992 1005 1020 1032 1047 1082 1082 1096 1116 1135 1143 1144 1141 1146 1137 1135 1135 1136 1143 1154 1167 1182 1190 1190 1197 1197 1187 1177 1168 1159 1149 1139 1123 1122 1124 1123 1117 1116 1115 1115 1115 1114 1118 1115 1110 1108 1111 1115 1121 1125 1129 1138 1142 1143 1145 1153 1151 1144 1136 1135 1145 1154 1154 1150 1144 1149 1143 1132 1138 1149 1161 1164 1162 1162 1168 1169 1173 1177 1178 1183 1191 1195 1197 1194 1193 1190 1192 1196 1198 1200 1202 1204 1207 1209 1211 1213 1216 1221 1226 1230 1232 1241 1241 1239 1240 1242 1249 1252 1255 1258 1269 1277 1284 1292 1297 1304 1308 1313 1329 1336 1342 1351 1360 1370 1375 1384 1390 1393 1397 1398 1398 1398 1398 1394 1400 1407 1415 1422 1430 1430 1440 1448 1454 1460 1466 1473 1479 1486 1493 1499 1507 1513 1522 1526 1530 1535 1540 1542 1546 1550 1553 1559 1564 1573 1582 1592 1605 1618 1628 1635 1648 1655 1659 1659 1659 1661 1665 1673 1677 1689 1698 1706 1711 1713 1721 1722 1721 1719 1716 1717 1716 1711 1704 1708 1708 1705 1698 1690 1689 1678 1675 1671 1679 1672 1665 1658 1658 1671 1674 1674 1665 1649 1645 1639 1635 1644 1660 1671 1673 1668 1662 1662 1656 1651 1646 1644 1641 1638 1634 1628 1625 1617 1608 1598 1590 1586 1575 1568 1568 1577 1586 1587 1580 1570 1567 1561 1551 1540 1525 1510 1497 1485 1478 1472 1466 1459 1453 1446 1438 1437 1434 1432 1430 1428 1426 1427 1429 1429 1430 1432 1434 1435 1438 1438 1436 1428 1424 1422 1422 1423 1425 1430 1437 1437 1427 1426 1427 1428 1428 1425 1423 1423 1424 1424 1426 1429 1432 1436 1444
644 666 698 726 732 728 723 723 731 736 744 750 758 778 790 796 796 796 796 796 796 795 796 801 807 814 818 822 825 827 831 839 842 842 844 845 845 844 843 841 834 830 824 823 824 816 821 828 830 833 831 831 831 831 822 824 827 834 844 853 875 896 910 915 920 923 923 928 927 930 934 939 943 929 923 914 902 882 872 861 854 852 846 844 845 847 851 853 856 861 866 878 885 889 889 884 874 867 860 851 846 838 838 846 856 861 872 886 901 907 918 923 927 931 917 921 929 943 958 990 1004 1015 1025 1039 1038 1029 1015 1007 986 971 956 945 923 923 911 901 897 882 874 868 861 850 843 850 861 873 890 908 923 944 963 967 979 988 988 968 966 954 945 939 910 890 872 881 868 859 859 854 857 843 857 881 899 906 887 879 878 873 868 888 908 920 913 932 924 917 917 949 952 940 925 909 912 905 904 915 933 941 949 961 961 972 992 1011 1029 1045 1060 1082 1101 1121 1123 1129 1128 1125 1133 1122 1120 1117 1127 1140 1154 1166 1178 1184 1186 1197 1199 1191 1179 1167 1157 1145 1136 1133 1129 1126 1125 1123 1120 1118 1117 1117 1118 1123 1121 1114 1109 1115 1118 1125 1131 1135 1143 1148 1151 1153 1159 1153 1146 1138 1136 1152 1160 1162 1158 1154 1163 1157 1149 1137 1137 1144 1157 1167 1170 1171 1170 1173 1176 1181 1185 1190 1192 1193 1187 1183 1187 1192 1196 1199 1202 1204 1205 1207 1210 1212 1215 1218 1224 1230 1230 1236 1246 1248 1248 1244 1245 1255 1259 1264 1266 1269 1285 1292 1297 1301 1310 1314 1317 1327 1334 1339 1347 1356 1366 1375 1382 1389 1391 1396 1399 1397 1394 1394 1392 1395 1404 1408 1414 1424 1432 1441 1449 1455 1460 1466 1473 1480 1484 1491 1498 1507 1515 1522 1528 1534 1538 1540 1545 1547 1551 1555 1563 1569 1575 1584 1584 1598 1609 1623 1633 1644 1654 1660 1662 1663 1668 1674 1679 1684 1689 1705 1713 1719 1720 1728 1728 1727 1725 1720 1722 1721 1714 1706 1712 1712 1710 1708 1704 1698 1698 1688 1687 1695 1690 1680 1670 1667 1681 1677 1672 1662 1650 1651 1641 1639 1646 1661 1673 1679 1676 1670 1669 1662 1656 1648 1649 1646 1641 1637 1631 1624 1618 1618 1610 1603 1596 1586 1575 1571 1587 1597 1597 1583 1573 1568 1563 1552 1540 1526 1512 1500 1489 1480 1471 1464 1457 1450 1444 1440 1439 1436 1433 1431 1428 1427 1427 1426 1425 1427 1428 1430 1431 1433 1434 1432 1427 1423 1421 1421 1423 1426 1428 1433 1432 1426 1425 1425 1425 1425 1424 1423 1423 1424 1425 1426 1428 1432 1437 1448
640 663 685 714 728 727 726 728 734 739 747 756 766 783 792 796 796 796 795 796 794 793 793 800 807 815 815 819 823 827 830 836 841 843 843 844 841 840 837 835 827 822 816 816 817 812 817 821 825 829 825 824 822 821 812 814 819 828 838 832 848 870 889 898 908 912 915 922 920 924 924 926 930 914 909 903 893 871 863 856 850 847 842 843 846 849 853 856 861 866 872 886 886 893 892 889 877 869 862 855 836 830 835 840 849 854 865 879 893 892 901 909 913 918 909 927 940 955 973 1004 1014 1023 1035 1031 1025 1017 1017 1008 989 976 958 946 923 913 901 887 882 869 866 858 851 839 842 849 862 876 889 907 923 940 956 952 970 975 967 952 949 941 929 929 905 899 879 863 868 851 840 837 840 841 855 878 887 890 867 862 861 859 888 904 925 938 935 953 949 946 946 949 957 943 930 914 920 924 919 907 914 921 932 942 956 971 987 1007 1025 1041 1057 1080 1099 1114 1123 1113 1110 1109 1119 1103 1101 1107 1126 1141 1150 1159 1166 1173 1185 1197 1197 1199 1193 1181 1169 1156 1143 1135 1131 1127 1124 1123 1120 1120 1120 1120 1121 1127 1126 1122 1115 1119 1123 1130 1136 1140 1149 1155 1160 1162 1162 1154 1147 1147 1143 1148 1155 1164 1169 1168 1173 1165 1156 1143 1140 1141 1154 1168 1172 1172 1172 1174 1178 1180 1184 1186 1185 1187 1179 1183 1188 1194 1197 1201 1205 1206 1206 1209 1209 1211 1214 1217 1220 1225 1230 1239 1248 1252 1252 1249 1250 1259 1265 1271 1276 1279 1292 1298 1302 1306 1317 1321 1326 1331 1335 1350 1358 1363 1369 1385 1385 1391 1394 1396 1402 1402 1397 1392 1388 1397 1405 1409 1415 1424 1433 1441 1448 1454 1458 1464 1471 1478 1478 1485 1491 1502 1513 1520 1525 1534 1538 1542 1547 1547 1551 1554 1560 1568 1576 1580 1584 1599 1612 1624 1634 1646 1656 1662 1664 1666 1673 1680 1686 1690 1696 1711 1721 1726 1727 1737 1735 1734 1732 1726 1728 1724 1724 1718 1716 1717 1718 1717 1715 1716 1706 1700 1698 1695 1699 1690 1677 1678 1683 1674 1665 1658 1658 1650 1642 1644 1649 1668 1678 1686 1683 1676 1673 1665 1658 1653 1653 1652 1648 1643 1636 1629 1623 1617 1610 1603 1592 1583 1575 1576 1593 1599 1595 1582 1574 1567 1563 1552 1539 1526 1510 1498 1488 1478 1467 1460 1453 1447 1442 1446 1445 1443 1438 1436 1431 1428 1427 1426 1423 1425 1427 1429 1431 1430 1430 1428 1426 1422 1420 1421 1423 1425 1427 1429 1428 1425 1424 1424 1424 1423 1423 1423 1423 1423 1424 1425 1426 1427 1432 1437
640 660 681 709 721 725 727 730 735 740 746 759 771 782 790 794 794 795 788 790 791 789 781 790 797 804 812 817 822 827 831 836 839 840 840 840 833 832 829 828 827 815 812 811 811 808 813 815 820 823 817 814 814 812 801 802 807 813 820 829 846 863 883 898 901 905 910 915 914 916 915 914 916 902 894 886 879 860 851 846 843 842 843 846 849 849 851 857 861 866 872 883 889 891 888 883 871 864 857 848 825 820 828 832 842 845 855 867 881 876 883 888 894 897 915 937 953 966 966 996 1010 1020 1030 1030 1021 1013 1007 999 977 964 950 934 912 903 889 881 871 856 854 848 835 834 841 850 864 876 885 901 917 929 940 945 945 963 959 935 935 932 925 914 887 882 871 854 852 832 827 836 843 847 850 864 869 869 855 859 864 875 905 921 944 956 956 973 970 970 967 964 975 961 947 934 927 936 933 919 913 922 925 939 956 967 981 997 1014 1032 1052 1070 1084 1098 1109 1099 1091 1088 1097 1080 1093 1108 1108 1128 1138 1143 1150 1159 1174 1188 1199 1200 1195 1179 1167 1156 1144 1135 1133 1128 1123 1121 1121 1122 1123 1123 1125 1133 1133 1130 1125 1123 1129 1136 1140 1145 1152 1158 1164 1169 1169 1166 1157 1151 1148 1154 1158 1168 1177 1179 1183 1174 1164 1151 1145 1144 1154 1168 1173 1172 1173 1174 1177 1180 1179 1179 1178 1181 1180 1180 1185 1190 1195 1199 1204 1207 1209 1212 1213 1215 1217 1219 1227 1230 1231 1241 1248 1257 1257 1255 1255 1263 1270 1277 1284 1289 1301 1306 1308 1312 1327 1332 1332 1335 1338 1353 1359 1366 1372 1378 1393 1397 1400 1401 1405 1403 1394 1387 1386 1397 1403 1410 1417 1422 1429 1437 1445 1452 1454 1459 1463 1470 1476 1482 1491 1501 1501 1513 1522 1530 1537 1540 1548 1550 1553 1557 1563 1571 1579 1585 1588 1601 1613 1624 1634 1642 1654 1661 1665 1668 1677 1686 1694 1695 1702 1717 1727 1734 1736 1745 1746 1744 1742 1739 1739 1732 1725 1719 1720 1721 1723 1722 1720 1719 1712 1711 1707 1704 1704 1694 1684 1686 1683 1672 1667 1665 1663 1650 1646 1650 1659 1682 1682 1689 1693 1688 1686 1679 1670 1662 1656 1655 1649 1643 1634 1631 1624 1617 1608 1601 1593 1585 1581 1583 1590 1593 1587 1578 1571 1564 1561 1548 1537 1524 1504 1492 1492 1483 1467 1461 1454 1449 1446 1452 1451 1447 1441 1438 1430 1427 1425 1424 1422 1423 1425 1427 1429 1428 1428 1427 1425 1420 1420 1421 1423 1425 1426 1428 1427 1427 1425 1423 1422 1422 1422 1422 1423 1424 1425 1426 1427 1428 1434 1440
637 659 680 708 722 725 728 731 735 739 746 746 758 767 778 784 787 788 779 780 782 781 780 787 794 801 809 814 820 828 832 834 836 835 833 834 825 822 819 820 819 810 808 806 806 799 804 808 810 814 810 809 807 802 791 791 799 807 815 824 839 852 875 892 892 899 903 908 907 908 906 903 904 888 882 872 864 846 846 841 838 838 847 850 852 853 854 861 865 870 877 879 881 882 882 877 867 860 851 839 817 810 815 822 834 838 845 855 866 876 870 870 874 878 903 921 945 964 980 1000 1012 1024 1030 1022 1012 1003 996 988 958 948 940 926 912 892 881 874 862 845 841 835 828 833 843 851 851 861 859 877 892 908 919 927 947 960 954 935 916 916 908 896 870 866 865 846 833 825 838 858 859 858 850 851 851 853 863 874 884 893 893 922 941 965 975 996 994 992 987 982 984 965 950 938 937 949 945 936 928 933 925 937 953 962 975 991 1014 1032 1043 1051 1061 1078 1092 1069 1080 1072 1067 1066 1084 1099 1115 1132 1128 1137 1149 1161 1179 1194 1200 1199 1191 1178 1168 1155 1144 1138 1133 1130 1127 1123 1124 1128 1130 1130 1131 1140 1140 1141 1138 1135 1131 1136 1141 1146 1161 1168 1173 1177 1174 1168 1163 1156 1150 1165 1172 1176 1183 1184 1179 1174 1165 1154 1148 1146 1151 1167 1173 1167 1167 1171 1171 1173 1168 1171 1172 1174 1178 1184 1188 1192 1196 1202 1206 1209 1211 1215 1216 1218 1220 1223 1234 1235 1236 1241 1251 1258 1260 1258 1257 1268 1276 1284 1292 1292 1302 1305 1311 1314 1327 1336 1340 1342 1345 1362 1370 1374 1378 1385 1398 1404 1404 1405 1402 1395 1383 1378 1387 1393 1400 1409 1417 1421 1428 1435 1442 1450 1445 1449 1453 1461 1469 1482 1485 1494 1504 1519 1528 1536 1541 1544 1552 1555 1559 1561 1568 1574 1583 1589 1593 1604 1614 1623 1632 1642 1654 1661 1667 1670 1683 1693 1693 1698 1701 1709 1721 1732 1742 1752 1753 1751 1750 1746 1744 1734 1727 1722 1720 1727 1727 1726 1724 1723 1719 1719 1716 1711 1708 1696 1695 1691 1690 1681 1676 1676 1674 1662 1655 1656 1658 1670 1690 1698 1698 1694 1691 1684 1674 1664 1656 1660 1655 1648 1639 1635 1627 1620 1612 1604 1598 1591 1586 1585 1590 1583 1579 1572 1572 1550 1555 1553 1542 1533 1513 1499 1487 1477 1463 1458 1453 1451 1452 1459 1457 1453 1446 1439 1427 1426 1424 1423 1422 1421 1423 1427 1428 1427 1426 1426 1423 1419 1419 1419 1421 1423 1425 1426 1427 1427 1424 1422 1421 1421 1421 1421 1423 1425 1427 1428 1431 1432 1437 1443
636 660 681 709 715 723 724 728 731 736 740 746 756 768 774 778 779 780 775 776 777 777 779 785 792 800 807 811 819 828 832 834 833 831 827 824 813 813 813 810 812 806 804 802 800 791 797 801 804 808 804 800 795 792 791 786 790 798 810 818 834 848 867 883 881 888 896 903 897 899 899 896 892 877 874 869 862 839 836 837 842 845 859 859 859 858 859 864 867 871 876 871 872 874 875 872 862 855 845 833 811 802 806 817 817 823 830 836 844 853 849 857 866 882 911 927 949 970 986 1001 1011 1020 1026 1013 1002 990 981 969 939 932 926 915 905 883 873 864 855 847 840 831 825 824 832 843 845 849 854 871 885 898 911 931 949 955 944 924 897 898 893 879 851 851 857 844 828 828 849 868 870 875 875 865 861 854 878 879 888 898 911 947 964 980 993 1018 1018 1015 1009 998 991 972 953 941 950 960 957 949 940 944 932 936 949 962 970 988 988 1008 1015 1025 1029 1040 1059 1051 1061 1058 1053 1072 1090 1104 1117 1124 1126 1140 1154 1166 1179 1196 1196 1194 1187 1177 1168 1158 1147 1139 1136 1134 1134 1134 1134 1131 1135 1137 1136 1144 1147 1147 1144 1135 1137 1141 1147 1154 1171 1177 1183 1184 1177 1174 1169 1161 1158 1174 1180 1185 1189 1187 1178 1167 1160 1153 1153 1155 1149 1148 1160 1154 1155 1157 1163 1167 1162 1167 1169 1172 1181 1186 1189 1194 1198 1206 1209 1211 1213 1218 1220 1221 1224 1228 1240 1243 1241 1242 1251 1257 1257 1262 1262 1267 1270 1282 1292 1298 1310 1313 1318 1322 1337 1343 1349 1351 1354 1371 1378 1382 1384 1389 1406 1406 1403 1403 1390 1379 1368 1376 1387 1387 1396 1396 1405 1409 1420 1428 1434 1440 1439 1445 1453 1466 1476 1488 1491 1497 1507 1522 1532 1539 1543 1548 1557 1560 1564 1566 1574 1579 1585 1591 1596 1605 1612 1619 1619 1629 1647 1662 1670 1671 1679 1689 1698 1703 1705 1715 1725 1737 1747 1757 1758 1757 1756 1753 1747 1735 1730 1728 1726 1734 1733 1731 1727 1728 1726 1725 1722 1717 1723 1715 1708 1705 1708 1697 1689 1686 1680 1665 1666 1667 1668 1677 1692 1697 1698 1697 1687 1678 1671 1665 1662 1667 1661 1653 1643 1636 1629 1622 1615 1606 1601 1601 1596 1590 1587 1585 1574 1569 1559 1539 1540 1540 1534 1527 1508 1495 1482 1473 1465 1462 1459 1457 1457 1464 1462 1456 1447 1439 1427 1425 1424 1423 1421 1420 1420 1421 1424 1424 1424 1423 1422 1418 1418 1419 1420 1422 1424 1426 1427 1426 1424 1421 1420 1419 1420 1419 1422 1426 1428 1430 1436 1439 1442 1450
610 637 664 688 720 721 722 727 732 737 744 752 759 767 771 773 774 774 771 772 773 776 779 784 790 797 804 809 817 828 828 832 833 832 827 820 808 803 803 802 805 799 795 795 793 784 787 791 795 801 793 789 784 783 784 778 781 791 805 815 830 846 860 860 860 869 880 889 879 883 884 882 879 861 859 856 845 839 841 851 855 858 872 870 867 865 864 868 868 869 870 862 863 866 869 866 860 856 848 840 828 810 800 803 814 815 820 827 835 842 842 855 873 892 919 933 951 969 985 1000 1007 1014 1018 1013 989 974 962 950 925 917 917 913 905 886 878 867 856 840 834 827 819 822 831 837 836 840 854 864 879 895 912 931 948 949 933 914 883 877 874 861 833 837 848 848 841 826 828 850 871 889 892 884 881 871 894 896 907 914 927 971 987 998 1011 1038 1041 1033 1020 1007 995 978 958 945 962 972 970 960 960 963 956 946 939 948 955 964 979 998 1000 1006 1010 1026 1040 1035 1046 1045 1050 1071 1085 1097 1106 1114 1134 1147 1160 1173 1186 1191 1189 1187 1184 1175 1175 1169 1160 1153 1146 1141 1141 1140 1135 1137 1142 1144 1143 1149 1151 1150 1145 1136 1143 1148 1156 1164 1179 1187 1193 1190 1182 1178 1172 1164 1165 1181 1188 1188 1192 1194 1189 1177 1164 1159 1159 1166 1158 1147 1148 1147 1154 1155 1156 1158 1168 1170 1172 1176 1182 1183 1191 1194 1200 1208 1211 1213 1216 1218 1223 1226 1226 1229 1239 1245 1246 1245 1247 1256 1263 1267 1268 1275 1277 1288 1298 1304 1321 1327 1327 1333 1337 1349 1355 1360 1363 1380 1384 1388 1394 1399 1407 1404 1397 1392 1379 1376 1358 1360 1373 1369 1382 1390 1398 1409 1419 1429 1432 1436 1437 1442 1454 1468 1481 1492 1496 1500 1509 1523 1534 1541 1546 1551 1563 1568 1571 1573 1574 1581 1584 1587 1593 1598 1604 1610 1619 1634 1657 1669 1674 1675 1685 1695 1703 1709 1711 1722 1731 1741 1751 1757 1761 1761 1760 1757 1750 1739 1736 1733 1731 1742 1742 1742 1740 1740 1734 1734 1732 1728 1730 1724 1719 1715 1714 1703 1697 1691 1678 1673 1679 1682 1679 1683 1696 1697 1695 1693 1677 1670 1670 1671 1670 1671 1664 1655 1655 1644 1636 1630 1624 1615 1607 1601 1597 1592 1589 1584 1572 1558 1546 1536 1530 1525 1524 1518 1501 1489 1477 1467 1469 1467 1465 1462 1463 1465 1461 1455 1446 1446 1438 1429 1426 1424 1421 1420 1419 1420 1422 1423 1421 1420 1419 1417 1417 1418 1420 1421 1422 1424 1424 1424 1422 1419 1418 1418 1418 1417 1422 1425 1428 1432 1431 1440 1446 1450
619 647 672 704 718 718 719 725 730 737 747 756 762 764 768 770 770 770 767 768 770 774 774 776 780 787 794 801 809 818 827 832 833 831 825 815 800 794 793 794 798 789 787 787 785 775 778 782 786 791 783 780 774 773 776 765 768 776 787 800 817 833 845 852 848 859 869 875 858 860 864 865 863 845 842 834 832 834 851 862 868 871 881 878 873 870 867 869 868 868 865 857 854 854 857 861 853 848 840 834 825 810 795 801 811 806 812 820 827 833 849 865 881 901 925 940 955 972 987 995 1000 1005 1005 1008 993 978 962 948 928 917 905 896 891 874 869 861 850 833 825 819 813 820 825 826 823 833 849 861 878 897 915 928 941 938 923 904 893 874 856 851 827 817 823 839 840 828 824 846 870 889 908 904 901 895 912 913 921 933 948 988 1004 1009 1027 1056 1056 1045 1028 1013 999 999 984 967 950 974 986 985 974 980 969 960 951 948 955 958 969 982 980 988 990 1007 1023 1019 1029 1029 1049 1071 1073 1088 1105 1120 1141 1154 1154 1165 1178 1181 1179 1180 1179 1177 1179 1175 1167 1157 1149 1146 1149 1146 1135 1144 1148 1149 1147 1155 1156 1151 1145 1142 1149 1158 1165 1172 1188 1197 1202 1196 1196 1188 1179 1173 1169 1180 1189 1196 1198 1196 1188 1176 1169 1170 1170 1176 1166 1152 1145 1150 1162 1164 1162 1165 1173 1174 1176 1179 1189 1195 1197 1194 1202 1201 1208 1212 1216 1219 1225 1228 1231 1234 1245 1251 1251 1251 1255 1266 1271 1276 1276 1287 1287 1290 1301 1312 1330 1336 1338 1343 1347 1356 1362 1370 1376 1387 1387 1391 1399 1405 1406 1402 1395 1386 1367 1361 1345 1353 1361 1370 1379 1386 1395 1408 1413 1424 1429 1431 1443 1452 1463 1474 1485 1495 1501 1506 1511 1523 1535 1542 1542 1550 1563 1570 1575 1577 1580 1586 1587 1591 1595 1601 1606 1612 1624 1640 1662 1672 1677 1681 1691 1699 1708 1715 1719 1730 1736 1745 1755 1759 1763 1764 1763 1763 1763 1750 1743 1744 1741 1748 1751 1753 1750 1745 1742 1744 1743 1738 1740 1733 1729 1723 1714 1709 1702 1691 1675 1682 1687 1693 1692 1691 1697 1695 1689 1683 1683 1676 1672 1673 1674 1676 1673 1667 1657 1644 1635 1629 1623 1614 1605 1599 1595 1589 1587 1578 1573 1564 1551 1539 1528 1515 1508 1507 1489 1481 1473 1471 1469 1470 1470 1467 1465 1466 1465 1460 1451 1446 1438 1429 1425 1423 1421 1419 1418 1423 1426 1422 1419 1418 1417 1417 1417 1418 1419 1420 1420 1421 1421 1421 1420 1418 1417 1417 1416 1414 1417 1421 1424 1426 1432 1441 1451 1458
636 657 688 713 715 716 718 723 729 734 742 753 759 760 764 764 765 765 759 762 765 768 771 775 780 787 794 799 806 814 825 831 833 829 819 809 793 786 783 786 790 778 780 781 778 775 771 773 773 776 767 772 772 766 764 759 764 772 783 803 819 832 838 842 840 849 853 858 858 842 846 847 847 829 826 828 836 843 862 872 879 879 883 881 878 875 871 870 869 867 862 857 848 848 851 854 845 839 831 822 819 805 793 794 800 806 810 817 824 834 858 872 888 909 931 931 946 961 976 984 989 993 998 1000 982 969 955 941 921 908 894 881 877 859 856 850 842 826 817 809 808 818 818 815 815 827 843 863 863 881 898 911 923 931 926 909 883 867 844 834 805 801 806 826 839 821 822 844 870 894 921 924 918 915 932 933 934 947 967 1002 1019 1027 1027 1057 1071 1066 1051 1037 1022 1007 992 974 957 984 1000 1000 992 994 980 970 960 955 959 957 959 967 966 970 974 988 1003 1004 1012 1019 1040 1040 1054 1074 1094 1112 1129 1146 1159 1171 1178 1172 1168 1169 1172 1179 1185 1182 1171 1160 1154 1153 1154 1149 1143 1149 1152 1153 1154 1160 1159 1152 1146 1145 1150 1157 1164 1170 1186 1198 1207 1210 1201 1193 1183 1176 1174 1180 1200 1204 1202 1196 1186 1179 1181 1183 1182 1182 1171 1158 1147 1160 1166 1172 1173 1172 1177 1178 1178 1180 1184 1195 1204 1206 1198 1206 1208 1214 1218 1222 1228 1233 1236 1240 1251 1259 1261 1260 1264 1277 1282 1285 1286 1287 1294 1292 1307 1320 1335 1344 1350 1350 1350 1362 1366 1374 1381 1391 1395 1401 1405 1407 1397 1389 1380 1371 1367 1345 1331 1343 1357 1363 1371 1381 1393 1404 1406 1409 1419 1429 1447 1458 1469 1480 1480 1491 1500 1508 1513 1524 1529 1538 1544 1554 1564 1572 1577 1582 1586 1590 1592 1595 1598 1607 1612 1617 1628 1646 1665 1675 1682 1686 1696 1702 1714 1721 1725 1736 1736 1741 1749 1757 1763 1766 1767 1766 1766 1756 1753 1754 1751 1756 1760 1761 1756 1752 1747 1750 1750 1747 1751 1743 1738 1730 1718 1714 1703 1688 1680 1692 1696 1696 1702 1703 1705 1697 1693 1688 1689 1684 1679 1677 1677 1678 1674 1668 1657 1644 1634 1627 1621 1612 1604 1597 1592 1585 1579 1571 1569 1564 1553 1541 1530 1518 1518 1502 1492 1483 1478 1478 1476 1475 1471 1468 1467 1466 1464 1460 1454 1447 1435 1427 1425 1423 1420 1418 1417 1424 1426 1418 1417 1416 1416 1416 1416 1417 1418 1419 1417 1418 1418 1418 1418 1417 1416 1416 1415 1415 1418 1421 1423 1425 1431 1440 1452 1461
650 672 704 711 713 716 719 719 723 725 728 735 746 751 758 760 761 760 754 758 763 766 770 774 780 786 793 795 802 812 824 831 832 823 813 804 785 778 776 778 780 772 770 773 772 769 755 764 764 764 755 761 761 758 757 754 762 772 785 803 816 824 827 833 828 833 835 840 840 823 830 831 829 818 818 828 838 847 867 874 881 883 882 880 876 872 870 868 867 864 859 853 843 842 844 847 837 831 819 809 807 793 783 784 797 811 819 819 824 832 853 867 880 896 915 933 948 962 975 978 982 986 990 990 973 962 949 937 913 900 888 872 863 845 845 841 834 826 809 803 805 805 810 810 805 813 828 851 867 884 897 906 915 919 912 898 871 855 837 818 805 788 792 801 816 815 828 850 874 896 937 946 941 934 950 949 950 953 966 997 1015 1033 1043 1057 1082 1072 1057 1040 1029 1011 994 975 966 998 1011 1012 1006 997 983 971 964 962 970 966 963 962 971 968 968 969 976 978 991 1000 1014 1032 1057 1079 1096 1113 1119 1143 1159 1172 1175 1167 1160 1161 1169 1177 1185 1183 1172 1161 1164 1163 1161 1154 1146 1154 1156 1156 1158 1168 1166 1160 1154 1149 1157 1163 1170 1177 1195 1205 1214 1215 1205 1195 1186 1180 1179 1188 1209 1208 1203 1195 1188 1191 1195 1195 1191 1185 1174 1163 1163 1170 1167 1169 1175 1180 1182 1180 1181 1182 1187 1196 1207 1210 1208 1212 1213 1216 1219 1224 1229 1235 1240 1246 1258 1268 1270 1269 1272 1282 1287 1291 1296 1297 1310 1306 1303 1313 1327 1340 1352 1358 1358 1371 1375 1383 1387 1401 1405 1405 1404 1402 1387 1379 1369 1360 1353 1330 1325 1339 1353 1353 1369 1382 1392 1399 1396 1396 1404 1419 1438 1448 1459 1470 1480 1493 1505 1514 1519 1524 1540 1545 1550 1557 1564 1572 1579 1585 1589 1594 1595 1597 1602 1614 1623 1627 1636 1650 1667 1679 1679 1686 1692 1703 1710 1720 1726 1735 1741 1747 1753 1758 1765 1768 1771 1771 1771 1766 1766 1764 1759 1766 1769 1769 1760 1752 1756 1756 1756 1755 1760 1751 1742 1733 1733 1725 1714 1700 1690 1699 1703 1707 1710 1709 1708 1701 1697 1694 1689 1687 1682 1681 1681 1679 1673 1667 1656 1644 1633 1625 1618 1611 1602 1596 1590 1583 1574 1570 1565 1565 1563 1553 1541 1530 1519 1506 1496 1487 1482 1479 1477 1473 1469 1467 1466 1465 1463 1458 1451 1443 1433 1427 1424 1422 1420 1417 1416 1418 1420 1415 1415 1415 1415 1416 1416 1416 1416 1417 1416 1416 1416 1416 1416 1415 1415 1414 1414 1417 1419 1421 1423 1425 1434 1443 1453 1463
646 664 693 710 709 711 714 719 722 719 719 727 739 751 753 757 758 755 754 758 761 765 769 772 777 782 789 795 803 812 821 829 825 825 815 805 795 778 772 768 771 763 762 763 760 755 747 753 754 752 749 752 750 747 750 754 763 774 789 803 810 813 813 821 807 806 810 810 816 800 805 811 810 814 828 839 850 859 869 878 882 883 877 874 870 867 867 863 860 857 854 849 838 837 838 840 827 819 810 798 798 778 781 776 782 799 813 822 829 839 862 873 886 902 918 934 948 960 971 972 976 980 982 981 963 953 943 929 902 893 881 867 853 847 835 831 829 820 802 799 799 805 801 799 802 815 832 851 869 882 894 896 903 908 903 887 859 842 823 806 791 789 798 801 805 822 840 840 860 887 935 958 965 958 963 964 965 976 985 1021 1031 1046 1057 1076 1093 1082 1066 1046 1033 1014 1000 984 978 1011 1020 1018 1010 994 982 977 977 976 991 984 978 975 973 991 985 975 971 974 981 997 1017 1036 1051 1069 1086 1102 1122 1144 1159 1171 1174 1162 1152 1155 1166 1177 1178 1180 1173 1168 1173 1171 1169 1164 1160 1164 1161 1162 1165 1173 1170 1163 1157 1155 1163 1170 1177 1186 1195 1212 1221 1221 1209 1200 1194 1190 1188 1198 1215 1210 1202 1193 1200 1200 1205 1206 1203 1197 1185 1176 1172 1170 1172 1171 1176 1183 1184 1184 1185 1187 1190 1200 1207 1211 1213 1219 1217 1218 1220 1225 1230 1237 1245 1251 1267 1274 1274 1276 1276 1284 1290 1294 1299 1307 1321 1322 1317 1318 1337 1348 1357 1362 1366 1379 1385 1391 1396 1406 1407 1401 1394 1393 1377 1370 1361 1353 1340 1325 1318 1334 1334 1346 1360 1373 1383 1388 1385 1397 1407 1421 1439 1449 1458 1467 1479 1494 1508 1516 1523 1532 1544 1550 1555 1559 1570 1575 1581 1587 1592 1599 1599 1601 1607 1611 1619 1628 1635 1641 1655 1665 1676 1688 1697 1708 1716 1724 1730 1739 1745 1752 1757 1761 1767 1772 1776 1776 1778 1775 1774 1771 1766 1776 1778 1776 1767 1761 1770 1765 1766 1766 1770 1763 1754 1744 1735 1724 1708 1698 1697 1709 1713 1716 1717 1714 1710 1704 1700 1697 1693 1690 1685 1685 1684 1679 1672 1665 1656 1646 1634 1626 1626 1617 1607 1599 1594 1588 1580 1566 1558 1559 1557 1549 1539 1529 1518 1507 1497 1490 1483 1476 1475 1468 1466 1465 1465 1464 1459 1454 1448 1441 1431 1427 1424 1424 1422 1419 1417 1415 1415 1415 1414 1415 1415 1415 1416 1416 1416 1416 1415 1415 1415 1414 1415 1414 1414 1414 1416 1417 1420 1422 1424 1426 1437 1447 1457 1469
661 685 709 710 706 709 713 716 719 712 711 720 732 744 747 752 753 751 749 755 757 762 767 769 774 779 779 789 797 805 810 813 814 816 806 796 786 769 764 759 763 752 750 751 746 742 741 745 744 744 743 745 743 742 745 757 766 778 792 792 797 800 800 800 789 789 788 790 794 783 795 796 803 827 840 846 852 859 859 872 878 879 877 864 860 857 860 853 851 848 844 841 830 830 830 833 821 812 806 797 786 761 764 768 778 799 814 826 835 848 868 878 891 905 919 933 946 955 965 962 967 972 972 969 951 944 944 934 919 892 883 874 860 840 828 815 814 808 793 794 796 800 791 788 800 816 833 847 864 876 885 896 889 896 892 876 848 830 814 795 795 779 804 819 818 841 841 856 884 907 959 978 982 972 982 984 987 997 1003 1043 1053 1070 1080 1090 1102 1091 1070 1053 1043 1023 1006 987 993 1007 1022 1027 1020 1005 995 993 994 993 1009 1003 998 995 993 1011 1004 990 975 971 981 1002 1019 1034 1038 1058 1077 1100 1129 1145 1160 1168 1167 1151 1151 1143 1150 1161 1165 1171 1175 1175 1173 1172 1170 1167 1166 1171 1168 1170 1173 1178 1173 1166 1160 1158 1169 1177 1184 1191 1200 1222 1228 1226 1212 1210 1207 1203 1203 1200 1216 1220 1212 1201 1211 1215 1216 1213 1206 1194 1186 1182 1181 1178 1178 1173 1173 1182 1186 1190 1191 1194 1195 1203 1208 1214 1218 1224 1221 1219 1223 1223 1233 1231 1242 1250 1258 1273 1279 1283 1284 1301 1304 1307 1307 1317 1334 1334 1328 1329 1342 1356 1361 1367 1373 1388 1394 1400 1405 1406 1400 1392 1382 1381 1364 1362 1356 1349 1343 1329 1314 1315 1333 1346 1357 1368 1373 1376 1383 1394 1408 1423 1439 1454 1458 1467 1479 1494 1507 1518 1527 1537 1549 1553 1558 1564 1574 1579 1579 1583 1590 1599 1603 1604 1606 1611 1625 1634 1641 1647 1664 1674 1682 1692 1700 1712 1721 1726 1733 1740 1747 1754 1760 1764 1773 1779 1782 1782 1778 1782 1783 1783 1779 1785 1786 1786 1783 1777 1778 1773 1774 1774 1776 1767 1755 1743 1736 1717 1707 1708 1708 1719 1722 1723 1722 1719 1710 1705 1701 1698 1695 1691 1689 1686 1686 1682 1676 1669 1663 1656 1644 1634 1625 1615 1603 1596 1590 1585 1577 1562 1552 1549 1550 1545 1534 1526 1517 1507 1496 1489 1481 1475 1472 1465 1463 1463 1464 1462 1462 1454 1450 1444 1434 1429 1426 1423 1421 1418 1417 1415 1414 1414 1415 1415 1415 1415 1415 1415 1415 1415 1415 1414 1414 1414 1415 1414 1414 1414 1416 1418 1422 1422 1423 1425 1429 1437 1448 1457
676 702 711 708 706 707 710 713 715 708 707 714 726 737 746 746 745 745 744 744 749 755 760 764 769 775 781 789 795 800 803 807 806 806 797 788 780 767 755 750 752 741 739 738 736 736 734 737 737 738 736 738 738 740 742 753 761 772 782 792 787 787 788 785 768 767 770 772 776 772 783 800 814 833 839 841 844 848 850 863 868 869 866 850 845 845 846 843 844 842 838 833 821 822 824 825 809 803 794 781 770 748 751 760 775 796 821 835 846 858 871 880 889 903 917 929 941 949 956 946 950 952 954 956 941 939 932 921 909 887 876 864 851 830 819 809 802 797 791 793 793 794 780 782 800 815 831 839 851 861 869 880 864 875 884 878 852 838 819 802 783 788 815 837 846 871 872 883 916 935 979 991 997 990 982 1009 1014 1018 1025 1061 1072 1087 1096 1101 1107 1093 1093 1078 1067 1049 1029 1010 992 1017 1030 1029 1018 1005 1006 1010 1009 1008 1028 1024 1017 1013 1014 1026 1021 1006 983 985 982 994 1009 1021 1041 1067 1089 1089 1107 1118 1138 1152 1159 1142 1138 1137 1144 1157 1160 1167 1172 1173 1171 1170 1170 1170 1172 1181 1175 1176 1179 1178 1176 1169 1165 1164 1173 1183 1190 1197 1197 1217 1229 1235 1230 1225 1220 1219 1215 1208 1221 1223 1215 1208 1225 1227 1225 1216 1206 1196 1193 1192 1189 1185 1182 1178 1175 1183 1185 1192 1195 1197 1200 1207 1207 1211 1217 1227 1231 1226 1223 1229 1240 1242 1245 1255 1265 1277 1288 1296 1301 1316 1320 1322 1319 1330 1344 1343 1340 1343 1352 1360 1367 1374 1380 1392 1396 1396 1401 1403 1391 1388 1381 1369 1348 1343 1342 1335 1333 1309 1302 1320 1335 1338 1343 1350 1360 1372 1379 1392 1406 1423 1439 1450 1460 1471 1482 1497 1507 1518 1518 1530 1543 1549 1555 1560 1570 1576 1581 1586 1593 1601 1607 1609 1611 1617 1628 1637 1645 1654 1666 1675 1684 1693 1703 1716 1722 1728 1733 1740 1748 1756 1763 1768 1772 1778 1785 1789 1789 1794 1790 1791 1789 1795 1795 1794 1791 1786 1784 1781 1783 1782 1779 1767 1754 1743 1735 1720 1722 1721 1716 1719 1731 1729 1726 1721 1709 1709 1704 1701 1696 1695 1693 1690 1686 1678 1670 1666 1661 1654 1642 1632 1623 1611 1603 1593 1586 1580 1572 1558 1549 1543 1541 1539 1526 1521 1514 1504 1494 1487 1487 1480 1475 1468 1464 1462 1462 1464 1460 1451 1444 1438 1430 1427 1425 1423 1421 1418 1417 1416 1414 1414 1415 1415 1415 1415 1415 1415 1415 1415 1415 1414 1414 1414 1414 1414 1414 1414 1414 1416 1421 1424 1426 1427 1434 1437 1447 1459
685 703 707 706 705 704 707 709 710 706 707 707 714 728 733 736 737 738 738 742 748 755 760 765 771 778 784 789 787 791 793 800 797 796 789 782 775 763 750 742 741 731 729 728 727 727 724 728 730 730 731 730 733 739 745 756 764 773 782 786 777 775 776 771 752 751 753 758 764 774 794 813 825 833 827 830 833 839 828 842 852 855 855 841 837 833 836 835 836 832 827 823 813 817 820 816 809 792 782 767 753 742 756 770 788 804 826 841 853 862 867 867 875 884 897 909 921 932 940 946 937 940 942 942 926 923 916 909 899 880 871 858 845 821 809 802 793 787 790 785 782 786 770 780 797 797 812 814 824 835 845 852 847 863 871 863 836 825 809 788 776 800 820 850 868 891 903 913 938 964 991 1005 1012 1010 1006 1035 1041 1045 1045 1071 1079 1094 1104 1111 1120 1108 1095 1081 1065 1048 1031 1014 999 1025 1038 1032 1018 1008 1018 1024 1025 1023 1045 1041 1034 1032 1030 1042 1034 1019 999 999 999 982 985 1003 1026 1049 1070 1087 1103 1105 1129 1142 1144 1125 1129 1134 1142 1150 1159 1165 1170 1172 1167 1168 1170 1177 1182 1186 1183 1184 1186 1182 1179 1179 1173 1170 1175 1180 1188 1197 1206 1226 1236 1241 1236 1232 1230 1228 1225 1220 1229 1229 1223 1222 1225 1236 1231 1218 1205 1207 1203 1199 1194 1188 1187 1184 1184 1179 1184 1185 1190 1194 1198 1204 1209 1214 1220 1227 1234 1231 1229 1233 1247 1251 1252 1259 1266 1282 1296 1306 1313 1328 1332 1334 1332 1340 1354 1352 1350 1353 1353 1362 1366 1374 1380 1383 1385 1388 1393 1395 1375 1370 1367 1360 1337 1325 1322 1318 1317 1291 1295 1313 1326 1338 1336 1342 1356 1369 1384 1397 1409 1420 1434 1448 1457 1462 1474 1491 1502 1513 1524 1535 1548 1554 1558 1562 1572 1578 1584 1589 1596 1603 1610 1612 1615 1621 1629 1637 1648 1657 1663 1670 1682 1693 1705 1716 1716 1720 1723 1729 1738 1748 1756 1765 1772 1781 1789 1794 1796 1802 1800 1800 1799 1805 1804 1802 1799 1793 1792 1791 1792 1788 1775 1762 1752 1743 1730 1735 1733 1727 1727 1726 1739 1736 1732 1726 1716 1708 1706 1704 1699 1701 1696 1691 1686 1672 1665 1662 1657 1651 1639 1628 1618 1608 1601 1590 1582 1573 1568 1560 1550 1541 1535 1535 1522 1516 1513 1508 1493 1490 1486 1480 1474 1467 1463 1461 1462 1464 1458 1449 1441 1435 1428 1425 1424 1422 1420 1418 1417 1416 1414 1414 1415 1415 1415 1415 1415 1415 1415 1415 1414 1414 1414 1414 1414 1413 1413 1413 1414 1416 1424 1426 1430 1432 1438 1439 1450 1463
683 698 702 702 702 698 700 703 706 703 704 706 715 729 725 727 729 733 740 746 748 754 760 766 771 776 780 782 778 781 785 792 787 788 785 777 771 764 756 745 736 720 718 718 719 720 718 721 722 722 726 728 735 742 748 753 761 769 773 776 767 763 760 756 739 739 744 754 762 790 805 805 817 823 812 812 818 822 816 830 842 844 844 829 825 822 829 825 826 822 816 814 806 815 813 807 800 779 769 755 741 744 763 781 781 801 813 824 839 850 850 858 866 877 892 902 913 921 929 934 925 926 926 927 907 905 904 898 889 873 863 849 835 813 800 790 783 783 782 781 774 773 775 764 777 792 803 800 806 817 826 837 839 853 855 846 817 807 795 778 781 808 827 854 877 891 916 930 949 975 990 990 1006 1020 1032 1052 1057 1065 1070 1098 1105 1114 1120 1124 1124 1109 1096 1081 1065 1047 1031 1015 1009 1032 1041 1034 1023 1014 1029 1041 1045 1044 1059 1056 1056 1053 1054 1068 1060 1048 1031 1027 1009 990 989 1008 1025 1047 1060 1073 1087 1098 1118 1130 1127 1119 1133 1141 1147 1153 1161 1163 1165 1167 1162 1166 1172 1181 1181 1188 1190 1189 1194 1194 1192 1185 1180 1177 1182 1185 1195 1204 1215 1235 1244 1247 1243 1242 1239 1236 1233 1231 1241 1240 1235 1235 1236 1241 1233 1220 1209 1219 1215 1208 1203 1198 1196 1192 1189 1184 1187 1188 1190 1192 1196 1200 1206 1216 1223 1230 1235 1234 1232 1237 1249 1257 1261 1265 1267 1288 1300 1312 1322 1340 1340 1344 1344 1342 1359 1361 1360 1359 1361 1368 1371 1378 1382 1372 1370 1378 1384 1385 1361 1351 1349 1348 1326 1313 1303 1297 1295 1294 1303 1313 1320 1327 1348 1353 1353 1364 1386 1391 1402 1419 1434 1454 1463 1470 1478 1495 1505 1518 1530 1541 1552 1559 1563 1566 1572 1580 1586 1592 1598 1601 1608 1612 1616 1622 1625 1634 1645 1645 1649 1659 1671 1682 1694 1705 1711 1713 1720 1729 1735 1744 1754 1764 1769 1779 1791 1798 1802 1808 1807 1807 1807 1810 1809 1808 1806 1801 1801 1799 1797 1788 1788 1771 1764 1755 1740 1744 1746 1740 1735 1739 1744 1737 1731 1724 1716 1714 1713 1711 1707 1707 1698 1691 1685 1672 1660 1656 1653 1648 1634 1625 1616 1607 1599 1589 1589 1580 1572 1564 1561 1552 1544 1534 1524 1512 1502 1498 1493 1482 1480 1477 1472 1464 1461 1459 1461 1464 1457 1448 1441 1434 1429 1426 1423 1421 1419 1417 1416 1416 1415 1414 1414 1415 1415 1415 1415 1415 1414 1414 1414 1413 1413 1414 1414 1413 1413 1413 1414 1419 1427 1431 1436 1439 1442 1443 1453 1466
652 673 690 696 698 694 697 699 701 700 703 705 711 720 717 720 726 733 740 742 747 754 760 765 770 770 771 774 770 773 773 778 777 779 782 782 774 761 750 742 731 720 711 712 712 713 709 711 715 718 721 728 734 740 746 744 754 760 763 766 755 750 745 745 742 727 737 749 763 777 789 798 806 810 793 796 804 807 809 826 832 834 832 815 810 812 820 815 816 813 807 803 804 808 804 796 789 775 764 755 744 727 744 765 786 803 811 820 831 839 842 849 857 870 885 888 897 905 914 922 906 905 907 909 891 889 887 885 881 861 861 850 838 819 804 790 780 778 781 775 766 764 764 759 774 785 792 783 788 795 808 821 833 844 837 827 800 789 781 775 790 819 835 835 859 880 895 915 931 948 969 988 1004 1024 1044 1066 1079 1091 1097 1125 1131 1136 1139 1135 1127 1111 1097 1081 1065 1048 1033 1017 1017 1038 1048 1038 1029 1029 1029 1040 1053 1060 1074 1074 1073 1074 1073 1084 1073 1060 1048 1027 1010 991 992 1007 1017 1035 1046 1057 1078 1087 1103 1107 1108 1127 1140 1149 1157 1160 1162 1161 1159 1160 1160 1159 1165 1172 1182 1191 1195 1196 1198 1198 1198 1194 1188 1185 1191 1193 1204 1213 1224 1243 1253 1254 1247 1242 1245 1242 1241 1241 1252 1251 1251 1249 1248 1253 1244 1235 1226 1228 1220 1214 1208 1202 1200 1195 1190 1186 1187 1192 1191 1191 1193 1195 1206 1215 1224 1231 1236 1237 1235 1240 1254 1260 1267 1267 1274 1290 1297 1307 1318 1339 1349 1354 1352 1354 1367 1369 1365 1364 1367 1367 1369 1376 1379 1359 1358 1366 1369 1367 1347 1335 1327 1331 1313 1302 1287 1284 1284 1291 1307 1319 1328 1337 1358 1361 1370 1379 1400 1407 1411 1422 1441 1456 1466 1480 1487 1504 1511 1522 1531 1542 1554 1562 1565 1569 1573 1580 1586 1589 1596 1595 1595 1603 1609 1614 1614 1619 1628 1639 1650 1660 1670 1682 1694 1697 1704 1710 1717 1727 1732 1741 1748 1759 1771 1782 1792 1802 1807 1808 1809 1810 1811 1814 1814 1814 1813 1811 1814 1809 1805 1800 1787 1780 1769 1754 1744 1755 1751 1744 1744 1747 1744 1735 1728 1720 1723 1724 1722 1720 1714 1711 1700 1689 1680 1668 1659 1648 1648 1646 1635 1629 1622 1614 1605 1594 1586 1578 1569 1560 1557 1551 1544 1535 1524 1513 1503 1495 1487 1475 1471 1471 1468 1460 1457 1454 1459 1463 1453 1448 1441 1435 1434 1428 1426 1424 1421 1417 1416 1415 1414 1414 1414 1414 1415 1415 1414 1414 1414 1414 1414 1413 1413 1413 1413 1413 1413 1413 1417 1423 1433 1436 1441 1443 1442 1448 1448 1455
639 661 680 691 693 691 694 695 696 702 705 706 706 710 714 718 724 732 737 739 745 752 758 756 761 763 762 761 757 759 765 772 768 773 777 778 772 761 746 734 724 715 698 703 703 703 695 706 712 719 723 720 725 733 739 737 737 745 749 753 745 743 738 732 730 714 733 745 761 754 765 778 787 791 784 787 790 796 805 816 820 823 820 799 796 802 811 815 806 806 804 798 790 795 795 791 785 762 747 740 731 730 747 768 787 801 806 815 822 831 842 839 852 863 875 876 884 888 899 906 881 880 888 888 875 874 873 872 872 858 849 838 828 819 793 783 773 777 772 763 755 756 754 754 767 774 779 763 772 782 796 810 820 824 816 808 808 782 772 772 780 804 826 843 862 877 893 912 932 948 975 990 1005 1030 1049 1073 1094 1107 1119 1144 1150 1151 1149 1141 1129 1113 1098 1083 1066 1068 1051 1036 1020 1024 1041 1048 1040 1033 1038 1049 1063 1071 1086 1088 1089 1091 1089 1098 1084 1069 1054 1032 1017 1000 992 1003 1004 1016 1029 1049 1068 1069 1082 1082 1097 1117 1133 1145 1157 1162 1161 1158 1155 1155 1156 1160 1165 1171 1182 1190 1195 1197 1198 1199 1203 1202 1198 1194 1203 1204 1212 1222 1232 1247 1254 1253 1253 1249 1247 1248 1248 1248 1256 1259 1260 1259 1258 1260 1251 1247 1238 1237 1230 1223 1215 1208 1204 1197 1191 1189 1192 1197 1197 1194 1191 1199 1207 1216 1224 1232 1230 1236 1241 1243 1252 1258 1263 1271 1283 1297 1306 1314 1325 1339 1356 1362 1363 1364 1378 1378 1370 1367 1365 1355 1360 1366 1365 1348 1344 1350 1350 1349 1331 1331 1320 1308 1314 1300 1291 1277 1278 1299 1317 1329 1340 1350 1364 1371 1380 1391 1411 1419 1425 1431 1444 1466 1471 1487 1497 1504 1518 1527 1534 1545 1554 1562 1562 1565 1570 1572 1576 1579 1581 1580 1587 1596 1604 1609 1610 1620 1630 1639 1650 1661 1669 1680 1690 1699 1706 1713 1718 1727 1740 1745 1750 1759 1774 1785 1794 1804 1804 1803 1806 1808 1811 1813 1818 1818 1817 1817 1820 1819 1814 1805 1792 1787 1771 1758 1755 1764 1758 1753 1754 1751 1742 1732 1727 1723 1733 1732 1731 1728 1720 1723 1713 1699 1687 1675 1666 1659 1646 1640 1630 1625 1618 1610 1603 1591 1582 1575 1566 1555 1549 1546 1541 1535 1520 1511 1502 1494 1485 1478 1469 1462 1463 1455 1455 1453 1451 1456 1452 1448 1445 1440 1432 1427 1427 1424 1420 1416 1415 1414 1414 1414 1414 1414 1414 1414 1414 1414 1414 1413 1413 1412 1413 1413 1413 1414 1415 1417 1417 1424 1436 1441 1442 1444 1448 1451 1450 1457
622 644 664 680 686 690 694 695 698 702 708 710 710 709 719 719 720 723 730 731 736 743 750 751 755 754 751 751 746 747 756 765 768 768 772 773 770 758 741 725 716 711 683 687 690 692 687 697 702 702 710 705 708 712 722 720 728 734 737 743 735 733 727 721 715 702 716 725 736 722 740 758 771 779 772 777 780 790 796 805 805 809 809 792 786 784 793 801 796 798 797 791 785 785 784 777 772 748 734 723 719 733 753 770 787 798 800 807 817 825 830 834 847 855 864 858 867 872 874 881 860 859 864 872 859 859 859 858 858 844 841 831 819 808 783 772 768 775 761 753 747 748 747 743 749 754 759 750 758 758 772 786 794 805 806 800 791 767 770 779 789 812 827 842 859 875 902 923 940 955 978 995 1011 1031 1052 1077 1104 1119 1134 1144 1164 1164 1164 1155 1145 1130 1117 1102 1084 1069 1053 1038 1024 1027 1039 1043 1043 1040 1046 1056 1070 1081 1086 1102 1106 1110 1109 1109 1087 1071 1052 1034 1034 1016 1004 1004 1007 999 1006 1024 1041 1046 1059 1083 1102 1117 1136 1151 1161 1162 1158 1153 1149 1148 1154 1160 1165 1172 1182 1185 1190 1194 1198 1200 1204 1209 1208 1205 1203 1210 1213 1220 1229 1237 1242 1244 1246 1247 1246 1249 1251 1254 1258 1262 1266 1268 1267 1264 1257 1253 1246 1244 1237 1231 1223 1213 1209 1198 1191 1193 1196 1203 1203 1206 1206 1209 1204 1207 1216 1223 1229 1237 1245 1246 1254 1258 1267 1276 1288 1302 1311 1321 1334 1346 1365 1372 1376 1377 1386 1382 1374 1362 1354 1342 1348 1353 1353 1343 1339 1330 1332 1332 1321 1319 1309 1297 1301 1286 1275 1271 1284 1302 1319 1333 1344 1354 1368 1380 1388 1399 1417 1428 1441 1450 1460 1476 1481 1493 1504 1504 1519 1525 1531 1538 1547 1554 1561 1564 1568 1568 1570 1571 1573 1574 1580 1587 1595 1602 1616 1626 1636 1644 1652 1667 1674 1684 1691 1704 1714 1721 1727 1734 1742 1748 1754 1758 1771 1781 1787 1795 1800 1792 1797 1803 1809 1814 1817 1821 1821 1821 1822 1821 1819 1811 1798 1789 1774 1768 1766 1773 1766 1762 1761 1753 1739 1730 1730 1729 1732 1742 1740 1736 1732 1722 1712 1698 1685 1675 1665 1654 1643 1637 1627 1619 1611 1606 1599 1585 1579 1572 1563 1555 1546 1539 1535 1529 1515 1505 1497 1497 1490 1481 1477 1470 1459 1451 1452 1451 1450 1453 1449 1445 1441 1438 1432 1428 1426 1422 1418 1415 1414 1414 1414 1414 1414 1414 1414 1414 1414 1414 1413 1413 1413 1412 1412 1412 1412 1413 1414 1420 1424 1430 1440 1446 1450 1451 1452 1453 1452 1457
611 637 659 675 686 692 697 701 701 705 711 712 714 717 722 722 722 725 728 729 732 739 746 745 746 743 740 741 735 737 747 755 760 761 766 768 766 747 731 717 709 709 681 665 666 673 656 673 679 688 698 689 691 696 711 720 720 723 728 733 727 724 717 709 700 690 698 699 710 702 721 742 757 767 760 760 764 770 782 786 794 792 793 777 771 776 786 791 790 793 791 788 778 773 771 764 758 734 719 713 718 733 752 767 782 792 791 803 803 812 817 814 823 833 846 852 855 856 858 862 844 843 852 858 859 846 847 846 844 832 832 824 811 797 779 766 765 768 752 744 742 742 742 743 744 747 749 759 752 749 762 780 784 792 792 782 772 769 778 787 800 825 837 851 864 880 907 922 941 959 982 1000 1020 1041 1059 1069 1085 1107 1127 1142 1166 1174 1170 1158 1146 1133 1120 1107 1089 1069 1054 1041 1028 1034 1043 1047 1048 1048 1055 1062 1076 1089 1097 1113 1125 1130 1126 1113 1113 1086 1068 1056 1060 1045 1031 1022 1025 1006 1005 1015 1031 1052 1063 1079 1098 1116 1140 1156 1161 1162 1153 1147 1145 1146 1153 1158 1163 1169 1179 1181 1187 1187 1192 1195 1191 1198 1204 1208 1209 1210 1217 1225 1233 1233 1234 1236 1240 1244 1244 1248 1253 1255 1260 1266 1274 1279 1270 1260 1255 1252 1249 1244 1238 1233 1225 1225 1219 1210 1196 1193 1196 1202 1206 1210 1212 1213 1207 1206 1214 1221 1228 1238 1247 1251 1254 1268 1274 1282 1293 1305 1315 1327 1341 1352 1370 1379 1388 1388 1393 1388 1382 1373 1360 1338 1331 1335 1341 1343 1329 1318 1316 1319 1305 1306 1297 1284 1288 1262 1263 1271 1289 1307 1321 1334 1346 1356 1376 1392 1401 1407 1417 1437 1437 1452 1462 1472 1481 1490 1499 1508 1522 1527 1533 1539 1545 1552 1557 1561 1564 1564 1567 1567 1569 1570 1575 1583 1591 1601 1616 1625 1638 1648 1658 1669 1679 1679 1689 1700 1710 1720 1728 1735 1748 1756 1759 1764 1771 1778 1784 1789 1789 1782 1785 1791 1800 1809 1808 1819 1822 1822 1824 1823 1821 1814 1801 1791 1780 1778 1778 1786 1781 1774 1770 1764 1751 1741 1735 1737 1741 1747 1743 1737 1731 1717 1708 1696 1684 1674 1665 1655 1642 1635 1624 1616 1608 1602 1594 1583 1575 1567 1558 1552 1549 1543 1536 1529 1519 1513 1504 1498 1488 1479 1471 1463 1456 1451 1449 1447 1446 1448 1444 1442 1438 1436 1432 1428 1424 1420 1416 1414 1414 1414 1413 1414 1413 1413 1414 1414 1414 1413 1413 1412 1412 1411 1411 1412 1412 1413 1418 1427 1429 1434 1443 1451 1454 1454 1454 1455 1455 1455
611 634 656 675 681 689 694 699 706 709 711 715 718 721 722 723 723 724 726 724 728 733 739 734 734 732 730 733 724 730 741 748 754 754 754 758 760 747 737 720 709 694 659 643 644 654 635 646 655 671 682 667 672 683 701 713 708 714 722 727 719 714 707 694 682 668 671 671 673 664 678 703 730 748 746 750 754 762 772 774 776 773 776 758 759 770 779 783 781 786 787 784 772 762 758 752 743 716 707 713 722 722 744 756 768 776 773 787 798 804 808 806 814 827 843 842 841 841 841 842 826 831 840 846 846 835 836 835 832 821 822 818 807 794 791 778 762 761 751 744 740 739 741 756 761 762 761 759 764 752 756 772 770 773 768 764 762 780 794 801 812 835 847 860 874 889 914 914 931 949 967 993 1007 1023 1046 1083 1105 1123 1137 1152 1174 1175 1170 1159 1145 1131 1119 1106 1089 1069 1054 1040 1029 1034 1048 1053 1057 1058 1065 1069 1082 1082 1095 1118 1131 1143 1149 1147 1118 1101 1086 1070 1072 1060 1050 1039 1038 1020 1005 1019 1037 1064 1079 1091 1103 1121 1146 1159 1161 1158 1146 1144 1144 1145 1145 1147 1155 1158 1167 1174 1179 1184 1188 1189 1184 1189 1194 1200 1205 1209 1218 1227 1233 1225 1226 1230 1234 1240 1243 1248 1254 1257 1264 1269 1276 1274 1265 1255 1255 1247 1245 1245 1235 1233 1229 1223 1213 1205 1196 1194 1195 1204 1208 1214 1217 1217 1209 1207 1215 1223 1228 1236 1248 1253 1260 1276 1283 1292 1298 1309 1316 1316 1330 1343 1355 1367 1378 1391 1390 1385 1379 1367 1354 1331 1320 1323 1329 1331 1318 1311 1303 1305 1292 1292 1284 1272 1269 1255 1267 1280 1294 1317 1328 1339 1339 1351 1368 1382 1396 1407 1417 1431 1442 1456 1465 1473 1483 1495 1504 1513 1520 1525 1532 1539 1540 1548 1553 1557 1561 1563 1564 1563 1565 1570 1571 1582 1593 1604 1601 1611 1622 1637 1648 1652 1665 1677 1690 1701 1713 1724 1733 1740 1748 1755 1759 1764 1771 1773 1779 1782 1782 1774 1776 1781 1790 1799 1801 1816 1821 1824 1826 1826 1822 1820 1814 1804 1798 1794 1791 1786 1788 1781 1774 1765 1749 1742 1742 1745 1748 1746 1741 1734 1726 1712 1703 1693 1683 1673 1664 1652 1641 1634 1624 1617 1617 1609 1600 1591 1583 1575 1565 1555 1546 1540 1533 1526 1522 1518 1513 1504 1489 1481 1474 1465 1457 1451 1448 1442 1440 1443 1440 1440 1439 1439 1436 1430 1424 1418 1418 1414 1413 1413 1413 1413 1413 1413 1413 1414 1414 1413 1412 1412 1411 1411 1411 1412 1413 1413 1425 1430 1433 1436 1446 1453 1456 1458 1457 1456 1453 1453
612 649 668 678 685 687 693 699 705 709 710 716 720 721 722 722 722 722 722 720 723 726 729 734 723 722 720 720 715 717 725 735 741 738 746 750 750 736 721 706 695 678 642 623 624 630 635 617 632 647 657 644 651 669 687 700 696 711 718 720 711 708 701 692 677 642 642 643 652 664 669 697 718 736 729 734 746 753 763 758 759 753 756 739 747 759 768 774 776 783 782 782 766 766 753 747 739 716 705 705 718 729 745 755 762 766 770 782 789 797 801 801 811 825 837 830 829 827 826 826 811 819 829 835 835 822 824 824 823 807 810 812 811 803 792 782 766 756 743 737 738 744 749 769 775 778 778 773 776 760 753 759 755 756 761 768 772 795 809 821 821 843 846 851 864 881 904 916 938 959 978 1004 1020 1038 1055 1092 1116 1131 1148 1164 1177 1175 1168 1156 1140 1126 1112 1098 1085 1065 1050 1036 1032 1032 1045 1053 1060 1064 1074 1075 1076 1089 1105 1136 1149 1160 1166 1154 1134 1120 1101 1087 1089 1081 1071 1052 1038 1024 1009 1022 1043 1070 1091 1108 1121 1134 1155 1155 1160 1156 1145 1143 1143 1143 1144 1146 1152 1158 1167 1174 1175 1181 1184 1183 1177 1180 1185 1191 1200 1208 1217 1223 1226 1218 1222 1231 1236 1241 1248 1250 1250 1256 1260 1268 1275 1279 1273 1263 1253 1242 1236 1234 1226 1225 1222 1217 1208 1204 1200 1199 1200 1208 1211 1216 1219 1217 1214 1211 1216 1224 1230 1236 1248 1256 1256 1268 1279 1289 1299 1312 1317 1320 1330 1342 1355 1366 1375 1388 1390 1376 1368 1357 1344 1323 1312 1309 1314 1318 1309 1305 1296 1296 1280 1278 1273 1259 1253 1256 1264 1277 1290 1303 1319 1332 1343 1355 1366 1377 1390 1404 1420 1427 1440 1454 1464 1472 1483 1496 1506 1514 1518 1523 1529 1534 1537 1544 1550 1554 1559 1559 1559 1561 1559 1561 1562 1570 1580 1592 1601 1610 1621 1635 1644 1646 1659 1674 1689 1697 1712 1727 1735 1742 1744 1749 1754 1758 1765 1769 1772 1773 1774 1767 1768 1771 1771 1777 1782 1794 1810 1820 1823 1824 1822 1819 1814 1810 1806 1803 1799 1795 1789 1781 1774 1765 1753 1749 1750 1751 1749 1743 1738 1730 1720 1707 1699 1690 1681 1681 1670 1661 1650 1640 1633 1625 1618 1610 1600 1590 1581 1571 1561 1553 1545 1540 1536 1528 1523 1517 1513 1504 1490 1479 1471 1463 1458 1452 1448 1442 1439 1439 1437 1437 1438 1440 1440 1440 1433 1425 1417 1413 1413 1413 1413 1413 1413 1413 1413 1413 1413 1412 1412 1411 1411 1410 1411 1412 1414 1419 1432 1436 1436 1438 1447 1453 1453 1459 1463 1460 1454 1451
626 658 668 678 683 681 688 696 702 706 711 717 720 722 722 721 720 718 718 715 717 719 720 720 710 713 713 714 708 711 719 727 733 732 739 742 740 720 706 688 671 658 624 606 602 604 612 594 609 621 633 620 631 631 654 670 672 691 704 712 697 691 685 675 661 634 631 633 639 651 660 684 705 720 717 725 733 742 751 739 739 735 737 717 732 744 744 755 755 769 775 777 777 760 743 734 724 701 696 707 721 733 740 748 751 758 764 772 780 789 794 799 810 819 827 830 813 812 811 811 796 798 810 819 823 811 809 810 811 797 800 804 804 799 790 781 769 756 743 737 743 751 760 777 786 792 792 787 789 775 761 756 768 768 772 778 786 810 809 820 837 843 866 870 877 891 914 924 943 964 985 1007 1024 1045 1065 1098 1119 1137 1159 1173 1177 1174 1164 1152 1137 1124 1124 1109 1093 1073 1058 1044 1034 1036 1047 1056 1064 1071 1082 1084 1089 1101 1118 1148 1157 1172 1175 1163 1150 1138 1120 1103 1110 1097 1081 1065 1047 1020 1012 1012 1029 1060 1078 1101 1121 1136 1153 1159 1157 1150 1142 1141 1140 1141 1143 1146 1151 1157 1166 1172 1172 1177 1179 1177 1171 1172 1179 1189 1199 1204 1212 1217 1217 1209 1217 1226 1237 1245 1255 1257 1256 1258 1264 1273 1280 1280 1273 1261 1250 1238 1231 1228 1222 1219 1216 1210 1207 1209 1211 1208 1206 1216 1216 1220 1223 1220 1226 1221 1218 1218 1226 1234 1239 1249 1257 1265 1279 1291 1303 1315 1322 1328 1335 1345 1363 1373 1379 1378 1377 1362 1354 1342 1332 1312 1305 1294 1299 1307 1296 1296 1296 1282 1270 1269 1262 1258 1250 1267 1278 1285 1291 1303 1316 1331 1344 1355 1371 1382 1390 1403 1417 1425 1437 1453 1464 1473 1483 1496 1506 1514 1516 1520 1523 1523 1529 1536 1542 1547 1551 1550 1553 1553 1553 1556 1563 1570 1580 1591 1600 1611 1621 1630 1634 1637 1654 1670 1685 1697 1711 1725 1733 1739 1737 1741 1746 1752 1752 1758 1763 1763 1763 1757 1755 1756 1759 1766 1782 1796 1809 1820 1823 1822 1820 1818 1815 1809 1806 1803 1798 1794 1785 1779 1772 1764 1755 1755 1756 1753 1747 1738 1738 1732 1725 1715 1702 1695 1687 1679 1666 1659 1648 1639 1632 1624 1617 1609 1599 1587 1576 1566 1558 1551 1541 1538 1534 1527 1516 1514 1511 1500 1488 1476 1467 1467 1460 1456 1451 1446 1442 1440 1438 1434 1435 1439 1441 1439 1433 1424 1415 1413 1413 1412 1412 1412 1412 1413 1413 1413 1413 1412 1411 1411 1410 1410 1411 1413 1413 1418 1430 1438 1440 1438 1438 1445 1452 1458 1463 1457 1454 1450
641 662 669 673 677 680 687 694 701 707 714 719 719 721 722 721 720 717 716 711 712 713 713 710 700 704 706 709 701 705 711 718 725 728 732 733 731 720 686 668 654 637 602 588 586 586 589 604 599 599 600 598 602 616 634 650 663 679 693 702 684 674 669 655 643 633 642 646 641 643 652 675 697 708 711 713 713 721 732 715 721 720 715 697 706 717 730 743 744 759 769 773 771 754 732 720 710 690 692 704 718 729 730 737 743 753 755 760 768 776 786 797 797 807 812 815 805 799 796 796 780 783 797 808 811 800 795 797 800 785 791 796 796 794 784 777 768 758 743 737 746 756 767 786 797 797 803 803 812 805 793 782 794 785 793 798 806 828 828 831 843 859 881 885 893 903 928 945 959 972 990 1013 1031 1052 1072 1109 1130 1151 1170 1170 1183 1175 1169 1159 1148 1130 1118 1104 1089 1072 1059 1046 1036 1039 1048 1057 1068 1076 1089 1095 1100 1109 1132 1152 1165 1182 1180 1163 1164 1150 1137 1124 1141 1126 1108 1091 1068 1038 1017 1024 1041 1076 1093 1112 1133 1145 1145 1150 1150 1146 1142 1137 1138 1140 1143 1145 1149 1156 1161 1167 1170 1174 1174 1172 1167 1167 1169 1177 1187 1186 1195 1204 1208 1209 1222 1230 1241 1250 1257 1259 1260 1264 1268 1274 1275 1273 1269 1258 1250 1240 1234 1227 1222 1217 1212 1208 1210 1216 1218 1218 1217 1223 1223 1224 1227 1229 1230 1227 1222 1220 1231 1238 1243 1249 1255 1264 1277 1289 1300 1314 1325 1333 1341 1353 1369 1374 1372 1364 1362 1349 1345 1333 1333 1315 1307 1298 1287 1280 1270 1279 1281 1269 1258 1256 1247 1243 1253 1274 1286 1294 1300 1306 1324 1334 1348 1362 1386 1394 1399 1405 1413 1429 1439 1453 1466 1475 1475 1484 1495 1504 1508 1513 1517 1521 1527 1535 1540 1543 1547 1545 1546 1546 1548 1555 1563 1567 1577 1591 1596 1609 1617 1622 1626 1632 1651 1663 1680 1696 1710 1710 1722 1728 1727 1729 1733 1740 1751 1754 1758 1751 1753 1744 1743 1744 1752 1763 1781 1797 1810 1820 1822 1820 1818 1816 1813 1805 1803 1798 1793 1789 1779 1775 1775 1770 1763 1759 1757 1757 1750 1736 1730 1726 1719 1710 1698 1691 1683 1675 1663 1655 1646 1637 1630 1622 1615 1606 1597 1588 1579 1569 1561 1549 1536 1525 1524 1520 1520 1509 1507 1504 1495 1482 1473 1465 1458 1453 1447 1441 1439 1439 1437 1429 1432 1438 1441 1437 1431 1422 1414 1413 1412 1412 1412 1412 1412 1413 1413 1413 1412 1412 1412 1411 1410 1410 1410 1411 1414 1421 1432 1439 1439 1438 1438 1441 1448 1454 1458 1455 1453 1450
649 660 663 666 671 676 685 691 697 703 710 715 719 721 721 717 715 713 712 706 707 707 706 701 691 696 700 703 694 698 703 710 720 724 726 723 716 703 684 665 645 630 600 585 584 594 605 627 623 613 603 618 607 605 620 642 645 669 682 687 684 661 652 640 633 645 660 668 661 643 646 646 666 688 699 702 697 694 705 693 699 700 697 697 696 706 716 729 736 752 764 769 766 748 727 707 696 684 685 695 707 719 715 723 734 734 747 747 750 759 772 777 789 801 806 806 792 787 781 781 767 768 782 793 799 787 783 785 787 785 779 785 787 787 776 772 762 753 753 736 739 751 762 781 794 805 812 814 826 823 814 803 815 803 807 816 823 845 843 846 850 869 894 899 905 914 938 955 972 983 998 1011 1024 1043 1061 1095 1123 1146 1165 1180 1184 1173 1162 1152 1141 1125 1108 1095 1085 1069 1058 1045 1038 1043 1051 1057 1069 1080 1096 1108 1115 1122 1140 1161 1175 1175 1191 1186 1184 1174 1163 1151 1143 1128 1110 1087 1061 1029 1024 1039 1059 1094 1108 1121 1131 1139 1134 1141 1144 1142 1139 1134 1136 1139 1142 1146 1149 1154 1154 1158 1162 1167 1170 1170 1164 1164 1168 1173 1179 1180 1187 1195 1203 1213 1229 1236 1245 1254 1257 1258 1261 1266 1270 1265 1263 1261 1263 1255 1250 1242 1235 1235 1227 1221 1215 1210 1208 1218 1224 1226 1224 1231 1233 1233 1234 1234 1236 1234 1228 1223 1234 1240 1245 1250 1255 1263 1274 1287 1299 1314 1326 1335 1345 1358 1369 1369 1367 1360 1351 1331 1335 1334 1325 1309 1303 1293 1283 1271 1256 1261 1264 1259 1258 1245 1240 1244 1259 1279 1291 1300 1309 1318 1330 1343 1357 1371 1390 1400 1400 1411 1417 1430 1437 1444 1456 1467 1475 1486 1496 1503 1506 1510 1515 1520 1527 1531 1536 1538 1542 1541 1541 1542 1548 1555 1557 1564 1572 1583 1596 1602 1609 1614 1614 1615 1624 1640 1658 1680 1696 1708 1716 1721 1722 1722 1727 1739 1748 1744 1746 1740 1740 1734 1733 1737 1751 1763 1776 1793 1811 1820 1821 1817 1814 1811 1808 1801 1800 1797 1791 1786 1773 1768 1769 1767 1760 1757 1753 1750 1744 1732 1723 1718 1712 1705 1691 1684 1677 1670 1659 1652 1643 1635 1628 1620 1613 1605 1596 1586 1586 1579 1571 1564 1555 1539 1522 1514 1512 1501 1496 1494 1489 1478 1470 1462 1456 1450 1445 1440 1438 1437 1431 1427 1427 1436 1440 1435 1428 1419 1414 1413 1412 1412 1412 1412 1412 1412 1412 1412 1412 1412 1411 1411 1410 1410 1411 1412 1415 1422 1433 1439 1439 1439 1437 1438 1444 1450 1454 1453 1452 1448
631 642 652 658 666 676 691 697 701 705 710 714 717 717 717 710 707 707 708 696 698 698 695 691 684 689 694 696 687 691 698 698 708 710 718 718 711 699 666 646 626 607 582 578 598 617 625 649 647 638 628 635 622 610 612 629 634 656 667 672 671 649 636 629 629 642 660 674 682 672 658 645 660 680 691 686 678 677 684 679 682 682 682 685 683 691 704 720 727 742 754 759 759 744 724 700 687 683 688 695 690 696 694 700 712 726 741 738 747 757 768 772 783 792 797 795 778 773 766 767 753 756 768 779 785 775 774 773 773 772 767 767 773 777 766 765 761 754 746 734 745 756 767 788 800 811 820 826 841 839 833 824 815 819 822 830 839 855 856 861 864 880 902 911 911 917 941 953 966 984 998 1030 1039 1053 1072 1095 1137 1160 1179 1187 1182 1171 1159 1147 1137 1120 1107 1092 1079 1062 1052 1043 1044 1049 1063 1062 1071 1071 1082 1103 1114 1127 1138 1162 1176 1189 1198 1194 1188 1178 1168 1155 1135 1120 1102 1077 1050 1033 1041 1059 1077 1093 1101 1106 1113 1122 1123 1133 1138 1138 1137 1135 1134 1136 1139 1143 1146 1149 1152 1157 1157 1161 1163 1164 1160 1160 1163 1168 1171 1182 1188 1197 1208 1220 1232 1240 1248 1254 1254 1255 1256 1261 1265 1250 1250 1249 1250 1249 1249 1246 1240 1234 1225 1219 1213 1210 1215 1227 1230 1233 1231 1241 1246 1244 1242 1238 1243 1239 1234 1230 1236 1242 1246 1251 1255 1261 1273 1273 1286 1296 1310 1326 1336 1348 1357 1361 1357 1350 1340 1321 1321 1321 1314 1293 1291 1285 1278 1264 1247 1247 1251 1247 1247 1235 1243 1256 1269 1284 1295 1304 1314 1314 1322 1333 1348 1362 1375 1389 1400 1413 1425 1432 1441 1449 1461 1469 1477 1487 1495 1501 1504 1509 1513 1518 1524 1527 1529 1533 1539 1537 1537 1538 1546 1552 1548 1557 1564 1573 1583 1585 1597 1603 1607 1610 1623 1639 1661 1682 1691 1701 1705 1715 1714 1716 1723 1734 1741 1733 1732 1730 1729 1734 1727 1734 1749 1762 1773 1789 1789 1808 1819 1815 1813 1808 1804 1793 1793 1790 1785 1779 1766 1761 1761 1763 1760 1753 1746 1742 1738 1727 1718 1711 1705 1698 1682 1677 1672 1666 1656 1649 1640 1640 1633 1624 1617 1611 1603 1595 1582 1576 1570 1565 1553 1539 1524 1511 1505 1494 1487 1484 1481 1472 1465 1460 1455 1450 1445 1441 1438 1434 1431 1426 1425 1432 1432 1434 1432 1425 1416 1414 1413 1412 1412 1412 1412 1412 1412 1412 1412 1411 1411 1410 1410 1410 1411 1413 1417 1424 1434 1437 1438 1438 1437 1436 1440 1447 1452 1450 1450 1449
630 636 648 662 674 682 696 700 704 708 708 710 711 711 711 702 698 698 698 685 688 688 684 684 669 676 682 687 688 679 684 691 701 697 707 705 694 681 643 631 615 593 571 586 612 632 646 665 664 656 646 635 635 624 607 614 623 623 640 655 662 647 635 625 628 652 674 687 693 682 666 646 659 678 691 668 663 664 671 664 667 668 667 673 670 677 694 712 720 731 731 739 747 740 735 716 695 683 697 707 697 691 690 695 706 719 730 734 744 753 760 766 775 780 783 781 762 755 750 749 733 742 756 756 767 762 765 764 763 762 754 759 763 766 755 752 749 744 735 738 749 760 773 793 805 819 830 837 853 853 847 839 829 833 837 845 852 863 870 873 876 879 900 908 921 931 956 968 981 999 1017 1045 1054 1069 1086 1108 1150 1174 1189 1188 1180 1167 1156 1145 1134 1120 1107 1089 1072 1055 1055 1047 1045 1051 1070 1077 1076 1076 1084 1107 1118 1132 1148 1170 1185 1198 1205 1198 1187 1176 1162 1148 1128 1112 1096 1069 1045 1045 1050 1064 1078 1093 1087 1087 1095 1104 1120 1119 1126 1130 1133 1131 1134 1138 1140 1142 1146 1148 1149 1151 1150 1154 1157 1160 1160 1157 1159 1169 1173 1182 1189 1198 1210 1223 1225 1233 1244 1244 1244 1246 1246 1247 1252 1241 1239 1240 1244 1249 1243 1240 1235 1230 1222 1220 1219 1220 1224 1235 1241 1241 1238 1250 1255 1254 1251 1245 1249 1245 1239 1234 1234 1239 1244 1248 1251 1255 1262 1272 1285 1296 1311 1326 1337 1348 1345 1350 1345 1339 1331 1312 1308 1309 1301 1293 1277 1274 1268 1258 1239 1237 1241 1237 1236 1236 1236 1252 1265 1278 1287 1297 1308 1313 1325 1337 1350 1363 1372 1383 1394 1410 1423 1431 1443 1455 1464 1469 1476 1486 1493 1500 1503 1507 1512 1516 1521 1519 1522 1522 1528 1529 1531 1532 1539 1544 1550 1556 1563 1570 1577 1581 1593 1598 1601 1612 1627 1644 1664 1679 1681 1689 1697 1708 1707 1708 1717 1727 1732 1721 1721 1720 1720 1720 1719 1725 1733 1747 1756 1768 1784 1801 1814 1808 1808 1803 1797 1782 1780 1779 1776 1771 1760 1755 1755 1756 1756 1748 1743 1738 1733 1724 1717 1707 1699 1690 1688 1680 1672 1667 1657 1650 1644 1637 1630 1620 1614 1607 1600 1592 1578 1572 1567 1562 1548 1536 1523 1511 1500 1493 1485 1478 1474 1465 1462 1457 1454 1451 1444 1444 1441 1438 1432 1426 1425 1425 1429 1430 1429 1422 1414 1413 1413 1412 1412 1412 1412 1412 1412 1412 1412 1411 1411 1410 1410 1411 1412 1414 1420 1426 1431 1434 1434 1435 1435 1433 1435 1438 1442 1443 1444 1441
620 638 655 671 683 693 699 701 704 706 705 706 705 705 704 692 692 687 687 675 673 674 675 671 658 665 671 676 679 666 668 677 683 678 690 689 678 664 630 614 600 577 575 596 621 645 659 672 676 676 668 656 656 647 638 621 616 614 627 643 653 632 624 625 635 670 684 697 704 690 669 649 654 668 673 660 664 663 662 677 671 672 669 669 686 679 672 683 696 709 717 724 732 725 721 707 688 684 703 717 714 700 700 693 704 712 722 725 737 746 754 759 764 767 769 766 747 744 737 730 728 715 729 744 756 749 753 754 753 754 747 752 756 756 743 736 735 732 731 743 753 766 781 793 814 829 840 849 860 860 861 856 847 847 846 852 858 878 887 892 893 895 913 914 929 943 956 979 994 1015 1033 1059 1069 1085 1103 1126 1162 1184 1190 1187 1179 1166 1155 1155 1144 1130 1117 1102 1083 1067 1055 1047 1050 1059 1082 1091 1089 1085 1091 1110 1120 1134 1154 1173 1190 1206 1207 1197 1189 1176 1161 1146 1132 1111 1096 1069 1069 1069 1058 1059 1068 1076 1099 1107 1110 1118 1134 1125 1122 1124 1128 1131 1132 1138 1140 1140 1143 1145 1146 1146 1146 1148 1150 1155 1156 1158 1164 1172 1176 1172 1176 1184 1196 1209 1207 1215 1230 1238 1236 1237 1236 1239 1241 1229 1228 1232 1238 1243 1235 1234 1230 1225 1224 1226 1227 1227 1230 1243 1249 1249 1248 1259 1264 1264 1263 1258 1260 1253 1249 1244 1238 1242 1245 1247 1251 1257 1265 1275 1285 1297 1312 1326 1335 1340 1333 1337 1330 1326 1321 1303 1293 1295 1286 1276 1263 1262 1262 1257 1239 1231 1229 1232 1228 1234 1242 1255 1269 1275 1288 1300 1309 1316 1327 1339 1350 1361 1372 1380 1391 1403 1416 1435 1446 1457 1466 1470 1473 1482 1491 1498 1495 1502 1505 1509 1513 1511 1513 1517 1525 1529 1525 1529 1536 1543 1550 1554 1559 1564 1570 1574 1582 1591 1599 1614 1628 1642 1656 1670 1670 1682 1694 1702 1707 1697 1700 1711 1718 1710 1710 1710 1710 1709 1715 1725 1732 1745 1754 1764 1777 1793 1805 1799 1800 1795 1789 1782 1769 1767 1765 1763 1754 1751 1748 1749 1750 1743 1743 1739 1735 1728 1721 1714 1705 1698 1687 1678 1671 1663 1657 1645 1639 1632 1626 1615 1610 1603 1596 1587 1574 1568 1563 1557 1542 1529 1519 1509 1501 1493 1486 1477 1477 1464 1460 1456 1454 1452 1445 1442 1440 1436 1430 1426 1425 1425 1427 1428 1427 1418 1414 1413 1413 1412 1412 1412 1412 1412 1412 1412 1412 1411 1411 1411 1411 1411 1412 1413 1416 1422 1428 1430 1431 1432 1432 1430 1433 1436 1439 1438 1437 1436
625 643 662 678 691 698 701 701 702 702 699 701 702 701 697 685 678 674 675 675 660 657 659 659 642 648 655 662 667 645 644 655 663 656 670 672 664 652 624 602 582 569 569 575 596 618 640 654 674 684 679 668 674 663 650 636 628 614 616 629 635 622 624 636 656 686 695 703 707 694 675 659 650 651 655 663 673 682 684 697 695 691 692 688 696 690 674 678 684 696 705 712 720 712 707 697 682 688 715 727 726 716 698 696 704 711 719 718 730 730 739 746 752 753 754 753 734 729 720 715 715 713 718 731 745 735 740 742 743 746 740 744 746 746 731 735 737 735 740 753 757 773 773 788 805 822 836 848 863 868 868 864 855 861 860 865 871 895 906 909 910 913 927 931 938 949 965 992 1010 1027 1045 1072 1088 1106 1124 1124 1155 1176 1187 1188 1185 1181 1169 1156 1143 1131 1120 1103 1082 1067 1056 1047 1057 1069 1091 1101 1100 1094 1100 1115 1125 1140 1158 1180 1199 1214 1208 1198 1191 1191 1179 1165 1151 1139 1117 1098 1082 1084 1076 1073 1084 1091 1119 1123 1129 1138 1146 1138 1135 1131 1133 1142 1136 1134 1137 1140 1139 1142 1144 1145 1146 1147 1147 1149 1152 1154 1159 1164 1169 1166 1173 1180 1192 1201 1198 1211 1223 1229 1236 1226 1227 1230 1231 1217 1217 1226 1234 1236 1227 1229 1227 1224 1230 1232 1234 1234 1235 1244 1248 1254 1259 1267 1266 1268 1268 1266 1265 1259 1252 1245 1241 1242 1243 1246 1251 1254 1262 1273 1285 1298 1314 1325 1326 1325 1319 1322 1314 1310 1308 1295 1292 1283 1275 1271 1248 1248 1249 1246 1230 1224 1220 1222 1228 1240 1246 1254 1265 1282 1291 1301 1310 1317 1325 1337 1347 1356 1368 1384 1395 1408 1422 1436 1436 1445 1455 1465 1463 1470 1478 1487 1493 1500 1503 1505 1508 1506 1509 1515 1521 1524 1519 1524 1534 1542 1544 1549 1554 1559 1566 1566 1578 1590 1601 1613 1625 1636 1636 1644 1647 1662 1678 1687 1694 1688 1697 1707 1711 1702 1700 1700 1698 1702 1712 1723 1731 1743 1750 1760 1770 1784 1794 1787 1787 1783 1778 1773 1761 1758 1758 1758 1750 1749 1747 1742 1742 1737 1737 1736 1733 1722 1716 1709 1702 1695 1684 1676 1669 1662 1654 1646 1637 1629 1622 1611 1604 1597 1590 1582 1569 1564 1558 1551 1545 1537 1522 1515 1506 1497 1492 1486 1477 1464 1457 1452 1450 1448 1442 1440 1437 1433 1429 1425 1424 1424 1426 1426 1423 1416 1414 1413 1413 1412 1412 1412 1412 1412 1412 1412 1412 1411 1411 1411 1411 1411 1412 1413 1416 1423 1428 1429 1430 1429 1429 1427 1430 1433 1435 1438 1432 1431
630 628 644 669 684 697 704 700 699 698 693 696 697 697 694 675 662 657 660 661 646 638 644 645 623 627 637 648 651 625 624 630 640 633 647 647 654 653 632 617 600 576 564 568 590 609 630 656 682 694 689 680 688 677 662 648 643 626 617 619 623 628 633 649 671 686 703 709 709 710 701 689 677 659 658 682 688 694 696 709 707 704 704 700 708 702 684 673 684 685 695 702 708 695 693 687 684 695 730 740 734 734 722 701 695 698 703 699 709 723 734 746 742 740 739 737 717 712 712 712 713 721 716 723 732 727 730 731 733 737 730 731 732 733 731 744 750 753 751 765 764 764 778 792 808 825 841 854 871 876 876 873 866 878 877 881 889 917 924 928 928 929 942 945 948 956 973 1005 1005 1024 1039 1069 1087 1107 1128 1144 1167 1180 1184 1185 1183 1180 1169 1156 1143 1134 1121 1105 1085 1069 1057 1052 1064 1077 1096 1109 1109 1105 1110 1123 1133 1133 1148 1168 1185 1203 1219 1213 1204 1193 1183 1170 1156 1144 1123 1110 1099 1100 1088 1090 1100 1110 1139 1141 1146 1153 1157 1151 1146 1142 1144 1149 1143 1137 1136 1136 1137 1138 1140 1142 1144 1147 1149 1150 1151 1152 1156 1160 1162 1163 1171 1177 1184 1189 1194 1205 1212 1221 1225 1216 1218 1219 1220 1209 1209 1221 1229 1227 1218 1222 1226 1227 1234 1235 1238 1243 1243 1250 1253 1261 1267 1267 1272 1273 1275 1272 1268 1261 1253 1244 1240 1238 1241 1246 1249 1250 1261 1274 1287 1300 1316 1316 1318 1313 1312 1305 1308 1301 1295 1280 1278 1267 1261 1260 1240 1234 1236 1233 1217 1215 1219 1226 1234 1251 1258 1266 1276 1282 1298 1303 1309 1316 1327 1333 1347 1347 1360 1369 1383 1395 1404 1412 1428 1439 1450 1458 1462 1468 1477 1485 1493 1496 1499 1500 1504 1501 1507 1512 1516 1518 1513 1522 1531 1538 1538 1544 1550 1556 1556 1554 1567 1582 1591 1601 1608 1618 1626 1636 1643 1657 1670 1679 1684 1685 1694 1701 1703 1694 1692 1690 1690 1698 1710 1720 1729 1739 1744 1754 1763 1772 1781 1772 1772 1774 1773 1771 1759 1755 1751 1751 1745 1744 1742 1738 1735 1731 1731 1731 1727 1717 1712 1705 1698 1692 1680 1673 1667 1661 1654 1646 1637 1628 1621 1609 1599 1599 1590 1582 1570 1565 1559 1552 1538 1525 1517 1510 1503 1495 1491 1485 1476 1465 1456 1451 1448 1445 1439 1437 1434 1430 1427 1424 1423 1423 1424 1420 1419 1415 1415 1414 1413 1413 1412 1412 1412 1412 1412 1412 1411 1411 1411 1411 1411 1412 1413 1414 1415 1422 1426 1428 1427 1426 1427 1427 1430 1431 1430 1432 1428 1427
610 630 650 673 689 704 698 696 695 693 693 691 694 695 691 662 647 640 642 646 628 619 627 622 601 606 620 620 632 615 604 601 606 596 611 623 635 640 623 608 593 579 566 561 584 607 629 664 693 705 699 694 700 687 670 656 659 642 632 627 622 641 647 650 656 677 692 705 713 712 714 706 693 678 677 694 697 701 707 716 712 709 712 710 718 712 694 674 677 680 685 690 694 686 686 686 687 694 726 745 751 739 729 715 703 698 697 696 701 715 727 737 725 725 723 722 712 713 719 725 726 735 721 721 725 731 730 730 728 727 725 725 730 735 741 761 766 766 764 773 774 777 784 795 812 830 847 861 877 884 885 883 879 894 895 898 909 917 944 944 943 943 956 957 958 961 967 995 1014 1034 1051 1083 1103 1121 1143 1155 1165 1174 1179 1182 1183 1181 1170 1158 1148 1134 1119 1102 1083 1068 1063 1057 1067 1081 1085 1099 1111 1116 1117 1127 1132 1143 1154 1168 1188 1205 1219 1217 1204 1194 1185 1175 1162 1152 1137 1123 1112 1108 1103 1106 1120 1129 1148 1154 1160 1163 1157 1164 1156 1152 1152 1159 1155 1149 1142 1138 1140 1140 1140 1141 1144 1147 1149 1149 1150 1150 1154 1157 1159 1161 1164 1169 1175 1182 1188 1196 1205 1211 1215 1206 1208 1208 1210 1205 1205 1206 1209 1215 1216 1220 1224 1230 1233 1235 1240 1246 1250 1257 1259 1265 1270 1272 1280 1282 1278 1274 1267 1260 1253 1244 1238 1233 1239 1243 1243 1241 1250 1261 1276 1290 1306 1316 1311 1300 1300 1291 1294 1284 1275 1265 1263 1253 1248 1248 1230 1225 1225 1224 1209 1213 1223 1233 1242 1261 1269 1277 1289 1289 1308 1309 1312 1322 1331 1334 1336 1345 1359 1369 1379 1389 1399 1426 1431 1433 1441 1454 1460 1467 1478 1486 1491 1493 1495 1497 1500 1498 1503 1508 1512 1514 1511 1511 1521 1528 1529 1536 1542 1548 1552 1553 1566 1578 1587 1598 1602 1609 1616 1627 1640 1649 1659 1669 1675 1681 1689 1694 1695 1686 1683 1682 1685 1697 1708 1717 1717 1726 1736 1738 1745 1753 1761 1757 1760 1762 1764 1762 1751 1748 1744 1744 1739 1738 1736 1732 1729 1722 1725 1724 1721 1717 1706 1700 1694 1687 1676 1669 1664 1658 1658 1650 1643 1635 1626 1615 1607 1597 1587 1576 1566 1559 1552 1545 1538 1520 1513 1506 1500 1492 1487 1480 1472 1463 1455 1450 1446 1442 1437 1435 1431 1428 1426 1425 1423 1422 1421 1421 1416 1416 1415 1414 1414 1413 1413 1412 1412 1412 1412 1412 1411 1411 1411 1412 1412 1412 1413 1414 1415 1419 1426 1424 1424 1424 1425 1427 1427 1429 1429 1427 1425 1425
616 638 659 676 695 702 689 691 691 687 687 683 687 686 678 645 633 623 620 625 603 606 605 609 584 582 590 605 614 597 588 585 591 596 589 602 622 629 610 594 578 568 561 575 592 611 637 675 702 714 715 708 711 711 699 683 670 671 657 649 646 661 666 672 670 676 696 707 717 717 725 718 708 700 695 707 709 712 717 716 715 714 717 719 722 716 704 704 686 698 689 685 684 690 691 695 703 714 744 756 757 744 729 728 718 708 699 707 701 705 715 722 708 709 710 708 726 724 727 737 737 750 746 732 728 746 744 739 735 731 737 739 745 752 757 775 776 773 774 783 788 793 793 800 819 837 853 866 881 889 893 894 894 908 910 913 917 926 956 961 958 956 973 975 976 978 980 1002 1019 1038 1059 1093 1111 1129 1145 1156 1161 1168 1173 1179 1182 1179 1172 1162 1150 1133 1116 1116 1100 1083 1082 1075 1063 1072 1092 1102 1112 1120 1124 1132 1140 1150 1161 1175 1192 1209 1217 1214 1199 1192 1185 1177 1165 1159 1148 1134 1121 1118 1115 1115 1115 1132 1147 1157 1166 1170 1170 1170 1161 1158 1160 1166 1161 1153 1146 1141 1143 1144 1146 1145 1144 1145 1146 1148 1149 1154 1154 1156 1158 1161 1161 1164 1172 1172 1174 1182 1192 1199 1203 1196 1199 1203 1204 1199 1201 1204 1205 1210 1217 1220 1223 1228 1233 1230 1237 1247 1255 1265 1267 1269 1274 1277 1284 1280 1276 1273 1264 1264 1256 1250 1245 1230 1228 1234 1233 1241 1249 1260 1276 1293 1307 1309 1303 1290 1287 1276 1274 1268 1260 1250 1251 1245 1234 1233 1218 1214 1211 1209 1209 1218 1218 1226 1239 1254 1266 1277 1289 1300 1317 1319 1319 1326 1336 1343 1348 1351 1356 1378 1387 1401 1416 1437 1442 1442 1443 1450 1461 1469 1478 1483 1489 1488 1490 1490 1489 1489 1494 1498 1502 1505 1502 1511 1519 1524 1528 1534 1539 1543 1546 1552 1564 1574 1583 1593 1593 1602 1613 1628 1635 1642 1650 1662 1673 1673 1679 1685 1687 1679 1679 1677 1677 1683 1691 1704 1714 1722 1732 1733 1738 1743 1751 1746 1751 1753 1754 1753 1743 1738 1736 1738 1733 1732 1730 1727 1723 1716 1718 1717 1715 1711 1705 1700 1695 1689 1678 1671 1666 1660 1655 1647 1639 1631 1623 1611 1603 1593 1584 1575 1565 1556 1547 1538 1530 1520 1513 1504 1499 1490 1483 1474 1466 1460 1451 1448 1448 1444 1439 1436 1433 1429 1427 1424 1423 1421 1419 1417 1415 1415 1415 1414 1414 1413 1413 1412 1412 1412 1412 1412 1411 1412 1412 1412 1412 1413 1414 1414 1415 1415 1416 1416 1419 1420 1422 1423 1427 1429 1428 1426 1424 1424
624 644 664 682 690 690 681 682 682 679 677 672 674 674 671 644 626 619 610 602 586 587 589 588 566 567 578 588 596 580 576 568 571 578 573 593 611 617 592 577 563 560 568 604 610 628 628 664 688 709 723 725 731 723 710 697 686 684 673 668 664 678 683 689 692 690 705 714 723 726 732 726 721 715 708 720 722 723 724 724 727 718 718 722 730 726 719 718 711 717 706 698 692 712 708 718 727 735 761 769 765 753 740 732 722 713 711 717 707 701 701 704 701 701 706 710 733 737 732 730 742 753 755 748 746 746 755 749 748 744 753 757 761 764 769 784 781 779 780 794 803 809 808 808 831 843 843 858 870 884 893 900 905 923 926 930 940 947 977 979 976 971 991 993 993 997 998 1020 1028 1043 1063 1093 1111 1128 1143 1153 1157 1162 1165 1165 1172 1171 1171 1168 1162 1146 1134 1119 1103 1087 1097 1086 1070 1077 1095 1106 1116 1122 1126 1135 1146 1156 1170 1182 1194 1205 1210 1205 1194 1189 1183 1175 1167 1170 1161 1152 1141 1132 1125 1126 1132 1140 1155 1164 1173 1177 1175 1171 1165 1165 1167 1173 1166 1157 1148 1144 1144 1146 1149 1148 1147 1147 1148 1149 1151 1163 1163 1162 1159 1159 1162 1161 1163 1168 1170 1177 1187 1191 1194 1190 1195 1197 1198 1196 1201 1206 1208 1213 1216 1218 1220 1222 1225 1228 1238 1249 1258 1265 1268 1268 1273 1277 1280 1278 1270 1270 1261 1258 1250 1247 1243 1220 1222 1232 1229 1240 1248 1259 1277 1294 1305 1304 1295 1284 1275 1262 1261 1256 1247 1235 1239 1236 1225 1225 1204 1205 1205 1203 1204 1219 1227 1232 1242 1257 1268 1280 1294 1306 1322 1327 1327 1330 1341 1348 1353 1358 1366 1383 1394 1408 1424 1437 1447 1447 1449 1454 1457 1464 1469 1474 1480 1480 1483 1484 1485 1482 1488 1493 1496 1499 1500 1510 1516 1522 1528 1530 1535 1536 1541 1551 1560 1570 1577 1585 1587 1600 1616 1627 1631 1639 1639 1648 1659 1653 1661 1671 1677 1679 1673 1671 1671 1679 1688 1700 1709 1717 1726 1726 1730 1734 1739 1737 1742 1745 1746 1746 1733 1729 1729 1732 1733 1726 1724 1724 1721 1711 1709 1712 1711 1708 1697 1693 1689 1684 1673 1667 1661 1657 1651 1642 1633 1626 1619 1611 1597 1588 1579 1571 1562 1554 1545 1536 1528 1519 1512 1504 1504 1496 1490 1481 1471 1462 1454 1450 1446 1442 1437 1434 1431 1428 1426 1423 1421 1420 1418 1416 1415 1414 1414 1414 1413 1413 1413 1412 1412 1412 1412 1412 1412 1412 1412 1412 1412 1413 1413 1414 1414 1415 1415 1415 1416 1417 1418 1422 1427 1428 1428 1426 1423 1422
